# .PCD v.7 - Point Cloud Data file format
VERSION .7
FIELDS x y z rgb
SIZE 4 4 4 4
TYPE F F F F
COUNT 1 1 1 1
WIDTH 858
HEIGHT 1
VIEWPOINT 0 0 0 1 0 0 0
POINTS 858
DATA ascii
10.00 0.00 2.0 4.2108e+06
20.00 0.00 2.0 4.2108e+06
35.00 0.00 3.0 4.2108e+06
40.00 0.00 2.0 4.2108e+06
45.00 0.00 3.0 4.2108e+06
50.00 0.00 3.0 4.2108e+06
55.00 0.00 7.0 4.2108e+06
60.00 0.00 6.0 4.2108e+06
65.00 0.00 13.0 4.2108e+06
70.00 0.00 24.0 4.2108e+06
75.00 0.00 33.0 4.2108e+06
80.00 0.00 37.0 4.2108e+06
85.00 0.00 41.0 4.2108e+06
90.00 0.00 43.0 4.2108e+06
95.00 0.00 44.0 4.2108e+06
100.00 0.00 45.0 4.2108e+06
105.00 0.00 45.0 4.2108e+06
110.00 0.00 45.0 4.2108e+06
115.00 0.00 46.0 4.2108e+06
120.00 0.00 46.0 4.2108e+06
125.00 0.00 47.0 4.2108e+06
130.00 0.00 48.0 4.2108e+06
135.00 0.00 48.0 4.2108e+06
140.00 0.00 46.0 4.2108e+06
145.00 0.00 46.0 4.2108e+06
150.00 0.00 44.0 4.2108e+06
155.00 0.00 43.0 4.2108e+06
160.00 0.00 39.0 4.2108e+06
165.00 0.00 37.0 4.2108e+06
170.00 0.00 36.0 4.2108e+06
175.00 0.00 34.0 4.2108e+06
180.00 0.00 31.0 4.2108e+06
185.00 0.00 29.0 4.2108e+06
190.00 0.00 26.0 4.2108e+06
195.00 0.00 24.0 4.2108e+06
200.00 0.00 22.0 4.2108e+06
205.00 0.00 18.0 4.2108e+06
210.00 0.00 15.0 4.2108e+06
215.00 0.00 11.0 4.2108e+06
220.00 0.00 8.0 4.2108e+06
225.00 0.00 7.0 4.2108e+06
230.00 0.00 7.0 4.2108e+06
235.00 0.00 8.0 4.2108e+06
240.00 0.00 9.0 4.2108e+06
245.00 0.00 8.0 4.2108e+06
250.00 0.00 8.0 4.2108e+06
255.00 0.00 8.0 4.2108e+06
260.00 0.00 8.0 4.2108e+06
265.00 0.00 7.0 4.2108e+06
270.00 0.00 9.0 4.2108e+06
275.00 0.00 8.0 4.2108e+06
280.00 0.00 10.0 4.2108e+06
285.00 0.00 8.0 4.2108e+06
290.00 0.00 9.0 4.2108e+06
295.00 0.00 9.0 4.2108e+06
300.00 0.00 9.0 4.2108e+06
305.00 0.00 10.0 4.2108e+06
310.00 0.00 10.0 4.2108e+06
315.00 0.00 11.0 4.2108e+06
320.00 0.00 10.0 4.2108e+06
325.00 0.00 10.0 4.2108e+06
330.00 0.00 11.0 4.2108e+06
335.00 0.00 10.0 4.2108e+06
340.00 0.00 10.0 4.2108e+06
345.00 0.00 10.0 4.2108e+06
350.00 0.00 10.0 4.2108e+06
355.00 0.00 10.0 4.2108e+06
360.00 0.00 9.0 4.2108e+06
365.00 0.00 10.0 4.2108e+06
370.00 0.00 9.0 4.2108e+06
375.00 0.00 8.0 4.2108e+06
380.00 0.00 8.0 4.2108e+06
385.00 0.00 9.0 4.2108e+06
390.00 0.00 9.0 4.2108e+06
395.00 0.00 9.0 4.2108e+06
400.00 0.00 10.0 4.2108e+06
405.00 0.00 9.0 4.2108e+06
410.00 0.00 10.0 4.2108e+06
415.00 0.00 9.0 4.2108e+06
420.00 0.00 10.0 4.2108e+06
425.00 0.00 10.0 4.2108e+06
430.00 0.00 10.0 4.2108e+06
435.00 0.00 9.0 4.2108e+06
440.00 0.00 10.0 4.2108e+06
445.00 0.00 9.0 4.2108e+06
450.00 0.00 10.0 4.2108e+06
455.00 0.00 9.0 4.2108e+06
460.00 0.00 8.0 4.2108e+06
465.00 0.00 9.0 4.2108e+06
470.00 0.00 10.0 4.2108e+06
475.00 0.00 8.0 4.2108e+06
480.00 0.00 9.0 4.2108e+06
485.00 0.00 10.0 4.2108e+06
490.00 0.00 9.0 4.2108e+06
495.00 0.00 10.0 4.2108e+06
500.00 0.00 9.0 4.2108e+06
505.00 0.00 9.0 4.2108e+06
510.00 0.00 10.0 4.2108e+06
515.00 0.00 11.0 4.2108e+06
520.00 0.00 8.0 4.2108e+06
525.00 0.00 8.0 4.2108e+06
530.00 0.00 9.0 4.2108e+06
535.00 0.00 8.0 4.2108e+06
540.00 0.00 10.0 4.2108e+06
545.00 0.00 9.0 4.2108e+06
550.00 0.00 10.0 4.2108e+06
555.00 0.00 10.0 4.2108e+06
560.00 0.00 9.0 4.2108e+06
565.00 0.00 8.0 4.2108e+06
570.00 0.00 9.0 4.2108e+06
575.00 0.00 9.0 4.2108e+06
580.00 0.00 10.0 4.2108e+06
585.00 0.00 9.0 4.2108e+06
590.00 0.00 9.0 4.2108e+06
595.00 0.00 10.0 4.2108e+06
595.00 5.00 10.0 4.2108e+06
590.00 5.00 10.0 4.2108e+06
585.00 5.00 10.0 4.2108e+06
580.00 5.00 10.0 4.2108e+06
575.00 5.00 10.0 4.2108e+06
425.00 5.00 8.0 4.2108e+06
420.00 5.00 9.0 4.2108e+06
415.00 5.00 10.0 4.2108e+06
410.00 5.00 8.0 4.2108e+06
405.00 5.00 8.0 4.2108e+06
400.00 5.00 8.0 4.2108e+06
395.00 5.00 8.0 4.2108e+06
390.00 5.00 7.0 4.2108e+06
385.00 5.00 8.0 4.2108e+06
380.00 5.00 8.0 4.2108e+06
375.00 5.00 9.0 4.2108e+06
370.00 5.00 11.0 4.2108e+06
365.00 5.00 13.0 4.2108e+06
360.00 5.00 16.0 4.2108e+06
355.00 5.00 19.0 4.2108e+06
350.00 5.00 23.0 4.2108e+06
345.00 5.00 25.0 4.2108e+06
340.00 5.00 26.0 4.2108e+06
335.00 5.00 28.0 4.2108e+06
330.00 5.00 30.0 4.2108e+06
325.00 5.00 33.0 4.2108e+06
320.00 5.00 36.0 4.2108e+06
315.00 5.00 37.0 4.2108e+06
310.00 5.00 37.0 4.2108e+06
305.00 5.00 40.0 4.2108e+06
300.00 5.00 41.0 4.2108e+06
295.00 5.00 42.0 4.2108e+06
290.00 5.00 43.0 4.2108e+06
285.00 5.00 45.0 4.2108e+06
280.00 5.00 45.0 4.2108e+06
275.00 5.00 46.0 4.2108e+06
270.00 5.00 47.0 4.2108e+06
265.00 5.00 49.0 4.2108e+06
260.00 5.00 47.0 4.2108e+06
255.00 5.00 47.0 4.2108e+06
250.00 5.00 46.0 4.2108e+06
245.00 5.00 47.0 4.2108e+06
240.00 5.00 46.0 4.2108e+06
235.00 5.00 46.0 4.2108e+06
230.00 5.00 45.0 4.2108e+06
225.00 5.00 44.0 4.2108e+06
220.00 5.00 44.0 4.2108e+06
215.00 5.00 41.0 4.2108e+06
210.00 5.00 40.0 4.2108e+06
205.00 5.00 38.0 4.2108e+06
200.00 5.00 34.0 4.2108e+06
195.00 5.00 24.0 4.2108e+06
190.00 5.00 16.0 4.2108e+06
185.00 5.00 9.0 4.2108e+06
180.00 5.00 4.0 4.2108e+06
175.00 5.00 3.0 4.2108e+06
140.00 5.00 2.0 4.2108e+06
135.00 5.00 2.0 4.2108e+06
110.00 5.00 2.0 4.2108e+06
105.00 5.00 2.0 4.2108e+06
100.00 5.00 2.0 4.2108e+06
95.00 5.00 2.0 4.2108e+06
90.00 5.00 2.0 4.2108e+06
85.00 5.00 2.0 4.2108e+06
80.00 5.00 2.0 4.2108e+06
75.00 5.00 2.0 4.2108e+06
70.00 5.00 2.0 4.2108e+06
65.00 5.00 2.0 4.2108e+06
60.00 5.00 2.0 4.2108e+06
55.00 5.00 2.0 4.2108e+06
45.00 5.00 2.0 4.2108e+06
40.00 5.00 2.0 4.2108e+06
35.00 5.00 2.0 4.2108e+06
15.00 5.00 4.0 4.2108e+06
0.00 5.00 2.0 4.2108e+06
30.00 10.00 2.0 4.2108e+06
55.00 10.00 6.0 4.2108e+06
60.00 10.00 6.0 4.2108e+06
65.00 10.00 5.0 4.2108e+06
70.00 10.00 10.0 4.2108e+06
75.00 10.00 19.0 4.2108e+06
80.00 10.00 27.0 4.2108e+06
85.00 10.00 33.0 4.2108e+06
90.00 10.00 39.0 4.2108e+06
95.00 10.00 42.0 4.2108e+06
100.00 10.00 43.0 4.2108e+06
105.00 10.00 44.0 4.2108e+06
110.00 10.00 46.0 4.2108e+06
115.00 10.00 47.0 4.2108e+06
120.00 10.00 47.0 4.2108e+06
125.00 10.00 47.0 4.2108e+06
130.00 10.00 49.0 4.2108e+06
135.00 10.00 49.0 4.2108e+06
140.00 10.00 49.0 4.2108e+06
145.00 10.00 47.0 4.2108e+06
150.00 10.00 45.0 4.2108e+06
155.00 10.00 44.0 4.2108e+06
160.00 10.00 44.0 4.2108e+06
165.00 10.00 42.0 4.2108e+06
170.00 10.00 41.0 4.2108e+06
175.00 10.00 39.0 4.2108e+06
180.00 10.00 37.0 4.2108e+06
185.00 10.00 34.0 4.2108e+06
190.00 10.00 33.0 4.2108e+06
195.00 10.00 29.0 4.2108e+06
200.00 10.00 27.0 4.2108e+06
205.00 10.00 26.0 4.2108e+06
210.00 10.00 23.0 4.2108e+06
215.00 10.00 21.0 4.2108e+06
220.00 10.00 17.0 4.2108e+06
225.00 10.00 13.0 4.2108e+06
230.00 10.00 10.0 4.2108e+06
235.00 10.00 8.0 4.2108e+06
240.00 10.00 9.0 4.2108e+06
245.00 10.00 7.0 4.2108e+06
250.00 10.00 7.0 4.2108e+06
255.00 10.00 7.0 4.2108e+06
260.00 10.00 7.0 4.2108e+06
265.00 10.00 8.0 4.2108e+06
270.00 10.00 7.0 4.2108e+06
275.00 10.00 9.0 4.2108e+06
280.00 10.00 9.0 4.2108e+06
285.00 10.00 8.0 4.2108e+06
290.00 10.00 8.0 4.2108e+06
295.00 10.00 8.0 4.2108e+06
300.00 10.00 9.0 4.2108e+06
305.00 10.00 9.0 4.2108e+06
310.00 10.00 9.0 4.2108e+06
315.00 10.00 10.0 4.2108e+06
320.00 10.00 10.0 4.2108e+06
325.00 10.00 11.0 4.2108e+06
330.00 10.00 11.0 4.2108e+06
335.00 10.00 11.0 4.2108e+06
340.00 10.00 12.0 4.2108e+06
345.00 10.00 10.0 4.2108e+06
350.00 10.00 10.0 4.2108e+06
355.00 10.00 10.0 4.2108e+06
360.00 10.00 9.0 4.2108e+06
365.00 10.00 10.0 4.2108e+06
370.00 10.00 10.0 4.2108e+06
375.00 10.00 10.0 4.2108e+06
380.00 10.00 9.0 4.2108e+06
385.00 10.00 10.0 4.2108e+06
390.00 10.00 9.0 4.2108e+06
395.00 10.00 10.0 4.2108e+06
400.00 10.00 10.0 4.2108e+06
405.00 10.00 11.0 4.2108e+06
410.00 10.00 10.0 4.2108e+06
415.00 10.00 9.0 4.2108e+06
420.00 10.00 10.0 4.2108e+06
425.00 10.00 9.0 4.2108e+06
430.00 10.00 9.0 4.2108e+06
435.00 10.00 10.0 4.2108e+06
440.00 10.00 9.0 4.2108e+06
445.00 10.00 10.0 4.2108e+06
450.00 10.00 10.0 4.2108e+06
455.00 10.00 10.0 4.2108e+06
460.00 10.00 9.0 4.2108e+06
465.00 10.00 10.0 4.2108e+06
470.00 10.00 9.0 4.2108e+06
475.00 10.00 9.0 4.2108e+06
480.00 10.00 9.0 4.2108e+06
485.00 10.00 9.0 4.2108e+06
490.00 10.00 9.0 4.2108e+06
495.00 10.00 9.0 4.2108e+06
500.00 10.00 10.0 4.2108e+06
505.00 10.00 9.0 4.2108e+06
510.00 10.00 10.0 4.2108e+06
515.00 10.00 10.0 4.2108e+06
520.00 10.00 9.0 4.2108e+06
525.00 10.00 9.0 4.2108e+06
530.00 10.00 9.0 4.2108e+06
535.00 10.00 10.0 4.2108e+06
540.00 10.00 8.0 4.2108e+06
545.00 10.00 10.0 4.2108e+06
550.00 10.00 10.0 4.2108e+06
555.00 10.00 8.0 4.2108e+06
560.00 10.00 8.0 4.2108e+06
565.00 10.00 10.0 4.2108e+06
570.00 10.00 8.0 4.2108e+06
575.00 10.00 9.0 4.2108e+06
580.00 10.00 10.0 4.2108e+06
585.00 10.00 10.0 4.2108e+06
590.00 10.00 9.0 4.2108e+06
595.00 10.00 10.0 4.2108e+06
595.00 15.00 9.0 4.2108e+06
590.00 15.00 10.0 4.2108e+06
585.00 15.00 8.0 4.2108e+06
580.00 15.00 10.0 4.2108e+06
575.00 15.00 10.0 4.2108e+06
570.00 15.00 10.0 4.2108e+06
565.00 15.00 10.0 4.2108e+06
560.00 15.00 9.0 4.2108e+06
555.00 15.00 10.0 4.2108e+06
550.00 15.00 10.0 4.2108e+06
545.00 15.00 10.0 4.2108e+06
540.00 15.00 10.0 4.2108e+06
535.00 15.00 10.0 4.2108e+06
530.00 15.00 10.0 4.2108e+06
525.00 15.00 10.0 4.2108e+06
520.00 15.00 10.0 4.2108e+06
515.00 15.00 11.0 4.2108e+06
510.00 15.00 10.0 4.2108e+06
505.00 15.00 11.0 4.2108e+06
500.00 15.00 11.0 4.2108e+06
495.00 15.00 10.0 4.2108e+06
490.00 15.00 10.0 4.2108e+06
485.00 15.00 10.0 4.2108e+06
480.00 15.00 10.0 4.2108e+06
475.00 15.00 10.0 4.2108e+06
470.00 15.00 10.0 4.2108e+06
465.00 15.00 11.0 4.2108e+06
460.00 15.00 9.0 4.2108e+06
455.00 15.00 10.0 4.2108e+06
450.00 15.00 9.0 4.2108e+06
445.00 15.00 9.0 4.2108e+06
440.00 15.00 9.0 4.2108e+06
435.00 15.00 8.0 4.2108e+06
430.00 15.00 8.0 4.2108e+06
425.00 15.00 8.0 4.2108e+06
420.00 15.00 8.0 4.2108e+06
415.00 15.00 9.0 4.2108e+06
410.00 15.00 9.0 4.2108e+06
405.00 15.00 8.0 4.2108e+06
400.00 15.00 8.0 4.2108e+06
395.00 15.00 8.0 4.2108e+06
390.00 15.00 9.0 4.2108e+06
385.00 15.00 8.0 4.2108e+06
380.00 15.00 8.0 4.2108e+06
375.00 15.00 8.0 4.2108e+06
370.00 15.00 9.0 4.2108e+06
365.00 15.00 10.0 4.2108e+06
360.00 15.00 11.0 4.2108e+06
355.00 15.00 13.0 4.2108e+06
350.00 15.00 16.0 4.2108e+06
345.00 15.00 19.0 4.2108e+06
340.00 15.00 22.0 4.2108e+06
335.00 15.00 24.0 4.2108e+06
330.00 15.00 27.0 4.2108e+06
325.00 15.00 29.0 4.2108e+06
320.00 15.00 30.0 4.2108e+06
315.00 15.00 33.0 4.2108e+06
310.00 15.00 34.0 4.2108e+06
305.00 15.00 35.0 4.2108e+06
300.00 15.00 36.0 4.2108e+06
295.00 15.00 39.0 4.2108e+06
290.00 15.00 40.0 4.2108e+06
285.00 15.00 40.0 4.2108e+06
280.00 15.00 44.0 4.2108e+06
275.00 15.00 43.0 4.2108e+06
270.00 15.00 45.0 4.2108e+06
265.00 15.00 45.0 4.2108e+06
260.00 15.00 46.0 4.2108e+06
255.00 15.00 49.0 4.2108e+06
250.00 15.00 49.0 4.2108e+06
245.00 15.00 49.0 4.2108e+06
240.00 15.00 47.0 4.2108e+06
235.00 15.00 47.0 4.2108e+06
230.00 15.00 47.0 4.2108e+06
225.00 15.00 46.0 4.2108e+06
220.00 15.00 45.0 4.2108e+06
215.00 15.00 45.0 4.2108e+06
210.00 15.00 44.0 4.2108e+06
205.00 15.00 43.0 4.2108e+06
200.00 15.00 42.0 4.2108e+06
195.00 15.00 40.0 4.2108e+06
190.00 15.00 37.0 4.2108e+06
185.00 15.00 34.0 4.2108e+06
180.00 15.00 28.0 4.2108e+06
175.00 15.00 23.0 4.2108e+06
170.00 15.00 17.0 4.2108e+06
165.00 15.00 8.0 4.2108e+06
160.00 15.00 5.0 4.2108e+06
155.00 15.00 7.0 4.2108e+06
140.00 15.00 2.0 4.2108e+06
120.00 15.00 2.0 4.2108e+06
115.00 15.00 2.0 4.2108e+06
105.00 15.00 2.0 4.2108e+06
95.00 15.00 2.0 4.2108e+06
85.00 15.00 2.0 4.2108e+06
40.00 15.00 2.0 4.2108e+06
30.00 15.00 2.0 4.2108e+06
20.00 15.00 2.0 4.2108e+06
10.00 15.00 2.0 4.2108e+06
0.00 15.00 2.0 4.2108e+06
0.00 20.00 2.0 4.2108e+06
15.00 20.00 2.0 4.2108e+06
30.00 20.00 3.0 4.2108e+06
35.00 20.00 2.0 4.2108e+06
40.00 20.00 2.0 4.2108e+06
50.00 20.00 6.0 4.2108e+06
55.00 20.00 5.0 4.2108e+06
60.00 20.00 12.0 4.2108e+06
65.00 20.00 23.0 4.2108e+06
70.00 20.00 26.0 4.2108e+06
75.00 20.00 34.0 4.2108e+06
80.00 20.00 39.0 4.2108e+06
85.00 20.00 41.0 4.2108e+06
90.00 20.00 42.0 4.2108e+06
95.00 20.00 44.0 4.2108e+06
100.00 20.00 45.0 4.2108e+06
105.00 20.00 46.0 4.2108e+06
110.00 20.00 46.0 4.2108e+06
115.00 20.00 46.0 4.2108e+06
120.00 20.00 49.0 4.2108e+06
125.00 20.00 49.0 4.2108e+06
130.00 20.00 50.0 4.2108e+06
135.00 20.00 49.0 4.2108e+06
140.00 20.00 46.0 4.2108e+06
145.00 20.00 45.0 4.2108e+06
150.00 20.00 43.0 4.2108e+06
155.00 20.00 42.0 4.2108e+06
160.00 20.00 40.0 4.2108e+06
165.00 20.00 38.0 4.2108e+06
170.00 20.00 37.0 4.2108e+06
175.00 20.00 34.0 4.2108e+06
180.00 20.00 33.0 4.2108e+06
185.00 20.00 30.0 4.2108e+06
190.00 20.00 27.0 4.2108e+06
195.00 20.00 25.0 4.2108e+06
200.00 20.00 23.0 4.2108e+06
205.00 20.00 20.0 4.2108e+06
210.00 20.00 17.0 4.2108e+06
215.00 20.00 13.0 4.2108e+06
220.00 20.00 11.0 4.2108e+06
225.00 20.00 8.0 4.2108e+06
230.00 20.00 9.0 4.2108e+06
235.00 20.00 9.0 4.2108e+06
240.00 20.00 8.0 4.2108e+06
245.00 20.00 9.0 4.2108e+06
250.00 20.00 9.0 4.2108e+06
255.00 20.00 10.0 4.2108e+06
260.00 20.00 9.0 4.2108e+06
265.00 20.00 9.0 4.2108e+06
270.00 20.00 8.0 4.2108e+06
275.00 20.00 9.0 4.2108e+06
280.00 20.00 10.0 4.2108e+06
285.00 20.00 9.0 4.2108e+06
290.00 20.00 9.0 4.2108e+06
295.00 20.00 9.0 4.2108e+06
300.00 20.00 9.0 4.2108e+06
305.00 20.00 10.0 4.2108e+06
310.00 20.00 9.0 4.2108e+06
315.00 20.00 11.0 4.2108e+06
320.00 20.00 11.0 4.2108e+06
325.00 20.00 10.0 4.2108e+06
330.00 20.00 10.0 4.2108e+06
335.00 20.00 10.0 4.2108e+06
340.00 20.00 11.0 4.2108e+06
345.00 20.00 10.0 4.2108e+06
350.00 20.00 11.0 4.2108e+06
355.00 20.00 11.0 4.2108e+06
360.00 20.00 9.0 4.2108e+06
365.00 20.00 10.0 4.2108e+06
370.00 20.00 11.0 4.2108e+06
375.00 20.00 11.0 4.2108e+06
380.00 20.00 10.0 4.2108e+06
385.00 20.00 10.0 4.2108e+06
390.00 20.00 10.0 4.2108e+06
395.00 20.00 10.0 4.2108e+06
400.00 20.00 9.0 4.2108e+06
405.00 20.00 10.0 4.2108e+06
410.00 20.00 10.0 4.2108e+06
415.00 20.00 10.0 4.2108e+06
420.00 20.00 11.0 4.2108e+06
425.00 20.00 11.0 4.2108e+06
430.00 20.00 10.0 4.2108e+06
435.00 20.00 9.0 4.2108e+06
440.00 20.00 10.0 4.2108e+06
445.00 20.00 11.0 4.2108e+06
450.00 20.00 10.0 4.2108e+06
455.00 20.00 10.0 4.2108e+06
460.00 20.00 10.0 4.2108e+06
465.00 20.00 9.0 4.2108e+06
470.00 20.00 10.0 4.2108e+06
475.00 20.00 10.0 4.2108e+06
480.00 20.00 9.0 4.2108e+06
485.00 20.00 10.0 4.2108e+06
490.00 20.00 9.0 4.2108e+06
495.00 20.00 10.0 4.2108e+06
500.00 20.00 10.0 4.2108e+06
505.00 20.00 9.0 4.2108e+06
510.00 20.00 10.0 4.2108e+06
515.00 20.00 9.0 4.2108e+06
520.00 20.00 11.0 4.2108e+06
525.00 20.00 10.0 4.2108e+06
530.00 20.00 9.0 4.2108e+06
535.00 20.00 9.0 4.2108e+06
540.00 20.00 9.0 4.2108e+06
545.00 20.00 9.0 4.2108e+06
550.00 20.00 10.0 4.2108e+06
555.00 20.00 11.0 4.2108e+06
560.00 20.00 11.0 4.2108e+06
565.00 20.00 10.0 4.2108e+06
570.00 20.00 10.0 4.2108e+06
575.00 20.00 10.0 4.2108e+06
580.00 20.00 11.0 4.2108e+06
585.00 20.00 9.0 4.2108e+06
590.00 20.00 10.0 4.2108e+06
595.00 20.00 11.0 4.2108e+06
595.00 25.00 9.0 4.2108e+06
590.00 25.00 11.0 4.2108e+06
585.00 25.00 10.0 4.2108e+06
580.00 25.00 10.0 4.2108e+06
575.00 25.00 10.0 4.2108e+06
570.00 25.00 9.0 4.2108e+06
565.00 25.00 9.0 4.2108e+06
560.00 25.00 9.0 4.2108e+06
555.00 25.00 10.0 4.2108e+06
550.00 25.00 10.0 4.2108e+06
545.00 25.00 10.0 4.2108e+06
540.00 25.00 10.0 4.2108e+06
535.00 25.00 11.0 4.2108e+06
530.00 25.00 10.0 4.2108e+06
525.00 25.00 9.0 4.2108e+06
520.00 25.00 10.0 4.2108e+06
515.00 25.00 11.0 4.2108e+06
510.00 25.00 11.0 4.2108e+06
505.00 25.00 10.0 4.2108e+06
500.00 25.00 11.0 4.2108e+06
495.00 25.00 10.0 4.2108e+06
490.00 25.00 10.0 4.2108e+06
485.00 25.00 10.0 4.2108e+06
480.00 25.00 10.0 4.2108e+06
475.00 25.00 10.0 4.2108e+06
470.00 25.00 10.0 4.2108e+06
465.00 25.00 10.0 4.2108e+06
460.00 25.00 9.0 4.2108e+06
455.00 25.00 9.0 4.2108e+06
450.00 25.00 8.0 4.2108e+06
445.00 25.00 8.0 4.2108e+06
440.00 25.00 9.0 4.2108e+06
435.00 25.00 8.0 4.2108e+06
430.00 25.00 8.0 4.2108e+06
425.00 25.00 9.0 4.2108e+06
420.00 25.00 9.0 4.2108e+06
415.00 25.00 8.0 4.2108e+06
410.00 25.00 9.0 4.2108e+06
405.00 25.00 8.0 4.2108e+06
400.00 25.00 8.0 4.2108e+06
395.00 25.00 9.0 4.2108e+06
390.00 25.00 9.0 4.2108e+06
385.00 25.00 9.0 4.2108e+06
380.00 25.00 8.0 4.2108e+06
375.00 25.00 8.0 4.2108e+06
370.00 25.00 7.0 4.2108e+06
365.00 25.00 9.0 4.2108e+06
360.00 25.00 10.0 4.2108e+06
355.00 25.00 12.0 4.2108e+06
350.00 25.00 13.0 4.2108e+06
345.00 25.00 17.0 4.2108e+06
340.00 25.00 21.0 4.2108e+06
335.00 25.00 22.0 4.2108e+06
330.00 25.00 24.0 4.2108e+06
325.00 25.00 25.0 4.2108e+06
320.00 25.00 27.0 4.2108e+06
315.00 25.00 29.0 4.2108e+06
310.00 25.00 32.0 4.2108e+06
305.00 25.00 33.0 4.2108e+06
300.00 25.00 35.0 4.2108e+06
295.00 25.00 35.0 4.2108e+06
290.00 25.00 37.0 4.2108e+06
285.00 25.00 39.0 4.2108e+06
280.00 25.00 39.0 4.2108e+06
275.00 25.00 41.0 4.2108e+06
270.00 25.00 42.0 4.2108e+06
265.00 25.00 43.0 4.2108e+06
260.00 25.00 46.0 4.2108e+06
255.00 25.00 47.0 4.2108e+06
250.00 25.00 50.0 4.2108e+06
245.00 25.00 50.0 4.2108e+06
240.00 25.00 50.0 4.2108e+06
235.00 25.00 47.0 4.2108e+06
230.00 25.00 49.0 4.2108e+06
225.00 25.00 46.0 4.2108e+06
220.00 25.00 46.0 4.2108e+06
215.00 25.00 46.0 4.2108e+06
210.00 25.00 47.0 4.2108e+06
205.00 25.00 44.0 4.2108e+06
200.00 25.00 45.0 4.2108e+06
195.00 25.00 44.0 4.2108e+06
190.00 25.00 42.0 4.2108e+06
185.00 25.00 40.0 4.2108e+06
180.00 25.00 38.0 4.2108e+06
175.00 25.00 34.0 4.2108e+06
170.00 25.00 29.0 4.2108e+06
165.00 25.00 24.0 4.2108e+06
160.00 25.00 17.0 4.2108e+06
155.00 25.00 10.0 4.2108e+06
150.00 25.00 6.0 4.2108e+06
145.00 25.00 3.0 4.2108e+06
140.00 25.00 2.0 4.2108e+06
135.00 25.00 2.0 4.2108e+06
120.00 25.00 2.0 4.2108e+06
115.00 25.00 2.0 4.2108e+06
105.00 25.00 2.0 4.2108e+06
15.00 30.00 2.0 4.2108e+06
30.00 30.00 2.0 4.2108e+06
55.00 30.00 2.0 4.2108e+06
65.00 30.00 10.0 4.2108e+06
70.00 30.00 18.0 4.2108e+06
75.00 30.00 24.0 4.2108e+06
80.00 30.00 33.0 4.2108e+06
85.00 30.00 37.0 4.2108e+06
90.00 30.00 39.0 4.2108e+06
95.00 30.00 41.0 4.2108e+06
100.00 30.00 42.0 4.2108e+06
105.00 30.00 44.0 4.2108e+06
110.00 30.00 45.0 4.2108e+06
115.00 30.00 47.0 4.2108e+06
120.00 30.00 46.0 4.2108e+06
125.00 30.00 47.0 4.2108e+06
130.00 30.00 47.0 4.2108e+06
135.00 30.00 50.0 4.2108e+06
140.00 30.00 50.0 4.2108e+06
145.00 30.00 51.0 4.2108e+06
150.00 30.00 46.0 4.2108e+06
155.00 30.00 43.0 4.2108e+06
160.00 30.00 42.0 4.2108e+06
165.00 30.00 39.0 4.2108e+06
170.00 30.00 38.0 4.2108e+06
175.00 30.00 37.0 4.2108e+06
180.00 30.00 36.0 4.2108e+06
185.00 30.00 33.0 4.2108e+06
190.00 30.00 30.0 4.2108e+06
195.00 30.00 30.0 4.2108e+06
200.00 30.00 27.0 4.2108e+06
205.00 30.00 25.0 4.2108e+06
210.00 30.00 24.0 4.2108e+06
215.00 30.00 23.0 4.2108e+06
220.00 30.00 22.0 4.2108e+06
225.00 30.00 16.0 4.2108e+06
230.00 30.00 12.0 4.2108e+06
235.00 30.00 10.0 4.2108e+06
240.00 30.00 9.0 4.2108e+06
245.00 30.00 8.0 4.2108e+06
250.00 30.00 9.0 4.2108e+06
255.00 30.00 8.0 4.2108e+06
260.00 30.00 9.0 4.2108e+06
265.00 30.00 8.0 4.2108e+06
270.00 30.00 8.0 4.2108e+06
275.00 30.00 8.0 4.2108e+06
280.00 30.00 9.0 4.2108e+06
285.00 30.00 8.0 4.2108e+06
290.00 30.00 9.0 4.2108e+06
295.00 30.00 9.0 4.2108e+06
300.00 30.00 9.0 4.2108e+06
305.00 30.00 9.0 4.2108e+06
310.00 30.00 10.0 4.2108e+06
315.00 30.00 10.0 4.2108e+06
320.00 30.00 10.0 4.2108e+06
325.00 30.00 10.0 4.2108e+06
330.00 30.00 10.0 4.2108e+06
335.00 30.00 11.0 4.2108e+06
340.00 30.00 10.0 4.2108e+06
345.00 30.00 11.0 4.2108e+06
350.00 30.00 11.0 4.2108e+06
355.00 30.00 11.0 4.2108e+06
360.00 30.00 11.0 4.2108e+06
365.00 30.00 10.0 4.2108e+06
370.00 30.00 10.0 4.2108e+06
375.00 30.00 11.0 4.2108e+06
380.00 30.00 10.0 4.2108e+06
385.00 30.00 10.0 4.2108e+06
390.00 30.00 11.0 4.2108e+06
395.00 30.00 10.0 4.2108e+06
400.00 30.00 10.0 4.2108e+06
405.00 30.00 10.0 4.2108e+06
410.00 30.00 10.0 4.2108e+06
415.00 30.00 9.0 4.2108e+06
420.00 30.00 10.0 4.2108e+06
425.00 30.00 10.0 4.2108e+06
430.00 30.00 10.0 4.2108e+06
435.00 30.00 10.0 4.2108e+06
440.00 30.00 10.0 4.2108e+06
445.00 30.00 10.0 4.2108e+06
450.00 30.00 9.0 4.2108e+06
455.00 30.00 10.0 4.2108e+06
460.00 30.00 11.0 4.2108e+06
465.00 30.00 10.0 4.2108e+06
470.00 30.00 11.0 4.2108e+06
475.00 30.00 10.0 4.2108e+06
480.00 30.00 9.0 4.2108e+06
485.00 30.00 10.0 4.2108e+06
490.00 30.00 10.0 4.2108e+06
495.00 30.00 11.0 4.2108e+06
500.00 30.00 9.0 4.2108e+06
505.00 30.00 10.0 4.2108e+06
510.00 30.00 10.0 4.2108e+06
515.00 30.00 10.0 4.2108e+06
520.00 30.00 10.0 4.2108e+06
525.00 30.00 10.0 4.2108e+06
530.00 30.00 11.0 4.2108e+06
535.00 30.00 10.0 4.2108e+06
540.00 30.00 11.0 4.2108e+06
545.00 30.00 10.0 4.2108e+06
550.00 30.00 10.0 4.2108e+06
555.00 30.00 9.0 4.2108e+06
560.00 30.00 9.0 4.2108e+06
565.00 30.00 11.0 4.2108e+06
570.00 30.00 10.0 4.2108e+06
575.00 30.00 9.0 4.2108e+06
580.00 30.00 10.0 4.2108e+06
585.00 30.00 10.0 4.2108e+06
590.00 30.00 10.0 4.2108e+06
595.00 30.00 10.0 4.2108e+06
595.00 35.00 10.0 4.2108e+06
590.00 35.00 11.0 4.2108e+06
585.00 35.00 11.0 4.2108e+06
580.00 35.00 11.0 4.2108e+06
575.00 35.00 9.0 4.2108e+06
570.00 35.00 9.0 4.2108e+06
565.00 35.00 10.0 4.2108e+06
560.00 35.00 11.0 4.2108e+06
555.00 35.00 11.0 4.2108e+06
550.00 35.00 11.0 4.2108e+06
545.00 35.00 11.0 4.2108e+06
540.00 35.00 11.0 4.2108e+06
535.00 35.00 10.0 4.2108e+06
530.00 35.00 10.0 4.2108e+06
525.00 35.00 11.0 4.2108e+06
520.00 35.00 11.0 4.2108e+06
515.00 35.00 12.0 4.2108e+06
510.00 35.00 11.0 4.2108e+06
505.00 35.00 10.0 4.2108e+06
500.00 35.00 11.0 4.2108e+06
495.00 35.00 10.0 4.2108e+06
490.00 35.00 10.0 4.2108e+06
485.00 35.00 10.0 4.2108e+06
480.00 35.00 10.0 4.2108e+06
475.00 35.00 10.0 4.2108e+06
470.00 35.00 10.0 4.2108e+06
465.00 35.00 9.0 4.2108e+06
460.00 35.00 10.0 4.2108e+06
455.00 35.00 10.0 4.2108e+06
450.00 35.00 10.0 4.2108e+06
445.00 35.00 9.0 4.2108e+06
440.00 35.00 9.0 4.2108e+06
435.00 35.00 9.0 4.2108e+06
430.00 35.00 9.0 4.2108e+06
425.00 35.00 8.0 4.2108e+06
420.00 35.00 8.0 4.2108e+06
415.00 35.00 10.0 4.2108e+06
410.00 35.00 9.0 4.2108e+06
405.00 35.00 9.0 4.2108e+06
400.00 35.00 9.0 4.2108e+06
395.00 35.00 9.0 4.2108e+06
390.00 35.00 8.0 4.2108e+06
385.00 35.00 11.0 4.2108e+06
380.00 35.00 9.0 4.2108e+06
375.00 35.00 8.0 4.2108e+06
370.00 35.00 9.0 4.2108e+06
365.00 35.00 9.0 4.2108e+06
360.00 35.00 11.0 4.2108e+06
355.00 35.00 13.0 4.2108e+06
350.00 35.00 16.0 4.2108e+06
345.00 35.00 19.0 4.2108e+06
340.00 35.00 22.0 4.2108e+06
335.00 35.00 23.0 4.2108e+06
330.00 35.00 24.0 4.2108e+06
325.00 35.00 24.0 4.2108e+06
320.00 35.00 26.0 4.2108e+06
315.00 35.00 27.0 4.2108e+06
310.00 35.00 28.0 4.2108e+06
305.00 35.00 30.0 4.2108e+06
300.00 35.00 32.0 4.2108e+06
295.00 35.00 34.0 4.2108e+06
290.00 35.00 36.0 4.2108e+06
285.00 35.00 38.0 4.2108e+06
280.00 35.00 39.0 4.2108e+06
275.00 35.00 40.0 4.2108e+06
270.00 35.00 42.0 4.2108e+06
265.00 35.00 43.0 4.2108e+06
260.00 35.00 46.0 4.2108e+06
255.00 35.00 49.0 4.2108e+06
250.00 35.00 51.0 4.2108e+06
245.00 35.00 51.0 4.2108e+06
240.00 35.00 50.0 4.2108e+06
235.00 35.00 49.0 4.2108e+06
230.00 35.00 47.0 4.2108e+06
225.00 35.00 47.0 4.2108e+06
220.00 35.00 47.0 4.2108e+06
215.00 35.00 47.0 4.2108e+06
210.00 35.00 45.0 4.2108e+06
205.00 35.00 45.0 4.2108e+06
200.00 35.00 44.0 4.2108e+06
195.00 35.00 42.0 4.2108e+06
190.00 35.00 40.0 4.2108e+06
185.00 35.00 36.0 4.2108e+06
180.00 35.00 34.0 4.2108e+06
175.00 35.00 29.0 4.2108e+06
170.00 35.00 24.0 4.2108e+06
165.00 35.00 18.0 4.2108e+06
160.00 35.00 8.0 4.2108e+06
155.00 35.00 6.0 4.2108e+06
150.00 35.00 2.0 4.2108e+06
135.00 35.00 3.0 4.2108e+06
120.00 35.00 2.0 4.2108e+06
110.00 35.00 2.0 4.2108e+06
105.00 35.00 2.0 4.2108e+06
80.00 35.00 2.0 4.2108e+06
20.00 35.00 2.0 4.2108e+06
20.00 40.00 2.0 4.2108e+06
25.00 40.00 2.0 4.2108e+06
30.00 40.00 2.0 4.2108e+06
50.00 40.00 10.0 4.2108e+06
55.00 40.00 6.0 4.2108e+06
60.00 40.00 8.0 4.2108e+06
65.00 40.00 18.0 4.2108e+06
70.00 40.00 25.0 4.2108e+06
75.00 40.00 32.0 4.2108e+06
80.00 40.00 38.0 4.2108e+06
85.00 40.00 40.0 4.2108e+06
90.00 40.00 44.0 4.2108e+06
95.00 40.00 45.0 4.2108e+06
100.00 40.00 45.0 4.2108e+06
105.00 40.00 47.0 4.2108e+06
110.00 40.00 47.0 4.2108e+06
115.00 40.00 47.0 4.2108e+06
120.00 40.00 49.0 4.2108e+06
125.00 40.00 50.0 4.2108e+06
130.00 40.00 51.0 4.2108e+06
135.00 40.00 51.0 4.2108e+06
140.00 40.00 46.0 4.2108e+06
145.00 40.00 45.0 4.2108e+06
150.00 40.00 40.0 4.2108e+06
155.00 40.00 38.0 4.2108e+06
160.00 40.00 36.0 4.2108e+06
165.00 40.00 32.0 4.2108e+06
170.00 40.00 30.0 4.2108e+06
175.00 40.00 30.0 4.2108e+06
180.00 40.00 30.0 4.2108e+06
185.00 40.00 28.0 4.2108e+06
190.00 40.00 24.0 4.2108e+06
195.00 40.00 22.0 4.2108e+06
200.00 40.00 22.0 4.2108e+06
205.00 40.00 20.0 4.2108e+06
210.00 40.00 16.0 4.2108e+06
215.00 40.00 12.0 4.2108e+06
220.00 40.00 9.0 4.2108e+06
225.00 40.00 8.0 4.2108e+06
230.00 40.00 9.0 4.2108e+06
235.00 40.00 9.0 4.2108e+06
