# .PCD v.7 - Point Cloud Data file format
VERSION .7
FIELDS x y z rgb
SIZE 4 4 4 4
TYPE F F F F
COUNT 1 1 1 1
WIDTH 646
HEIGHT 1
VIEWPOINT 0 0 0 1 0 0 0
POINTS 646
DATA ascii
0.0 0.0 2.0 9.147676375112406e-41
0.0 15.0 3.0 9.147676375112406e-41
0.0 25.0 4.0 9.147676375112406e-41
0.0 30.0 3.0 9.147676375112406e-41
0.0 35.0 4.0 9.147676375112406e-41
0.0 40.0 3.0 9.147676375112406e-41
0.0 45.0 3.0 9.147676375112406e-41
0.0 50.0 3.0 9.147676375112406e-41
0.0 55.0 3.0 9.147676375112406e-41
0.0 60.0 4.0 9.147676375112406e-41
0.0 65.0 4.0 9.147676375112406e-41
0.0 70.0 4.0 9.147676375112406e-41
0.0 75.0 4.0 9.147676375112406e-41
0.0 80.0 5.0 9.147676375112406e-41
0.0 85.0 4.0 9.147676375112406e-41
0.0 90.0 3.0 9.147676375112406e-41
0.0 95.0 3.0 9.147676375112406e-41
0.0 100.0 4.0 9.147676375112406e-41
0.0 105.0 4.0 9.147676375112406e-41
0.0 110.0 4.0 9.147676375112406e-41
0.0 115.0 3.0 9.147676375112406e-41
0.0 120.0 5.0 9.147676375112406e-41
0.0 125.0 5.0 9.147676375112406e-41
0.0 130.0 6.0 9.147676375112406e-41
0.0 135.0 4.0 9.147676375112406e-41
0.0 140.0 2.0 9.147676375112406e-41
0.0 145.0 4.0 9.147676375112406e-41
0.0 150.0 2.0 9.147676375112406e-41
0.0 155.0 2.0 9.147676375112406e-41
0.0 160.0 2.0 9.147676375112406e-41
0.0 165.0 2.0 9.147676375112406e-41
0.0 180.0 2.0 9.147676375112406e-41
0.0 185.0 2.0 9.147676375112406e-41
0.0 190.0 2.0 9.147676375112406e-41
0.0 335.0 3.0 9.147676375112406e-41
0.0 340.0 3.0 9.147676375112406e-41
0.0 345.0 2.0 9.147676375112406e-41
0.0 380.0 3.0 9.147676375112406e-41
5.0 430.0 2.0 9.147676375112406e-41
5.0 415.0 2.0 9.147676375112406e-41
5.0 410.0 2.0 9.147676375112406e-41
5.0 375.0 2.0 9.147676375112406e-41
5.0 360.0 3.0 9.147676375112406e-41
5.0 355.0 3.0 9.147676375112406e-41
5.0 350.0 3.0 9.147676375112406e-41
5.0 335.0 2.0 9.147676375112406e-41
10.0 60.0 2.0 9.147676375112406e-41
10.0 95.0 2.0 9.147676375112406e-41
10.0 110.0 2.0 9.147676375112406e-41
10.0 360.0 2.0 9.147676375112406e-41
10.0 370.0 2.0 9.147676375112406e-41
10.0 375.0 2.0 9.147676375112406e-41
15.0 445.0 2.0 9.147676375112406e-41
15.0 360.0 2.0 9.147676375112406e-41
15.0 330.0 2.0 9.147676375112406e-41
20.0 25.0 3.0 9.147676375112406e-41
20.0 30.0 4.0 9.147676375112406e-41
20.0 35.0 4.0 9.147676375112406e-41
20.0 40.0 5.0 9.147676375112406e-41
20.0 45.0 4.0 9.147676375112406e-41
20.0 50.0 4.0 9.147676375112406e-41
20.0 55.0 4.0 9.147676375112406e-41
20.0 60.0 5.0 9.147676375112406e-41
20.0 65.0 4.0 9.147676375112406e-41
20.0 70.0 6.0 9.147676375112406e-41
20.0 75.0 5.0 9.147676375112406e-41
20.0 80.0 5.0 9.147676375112406e-41
20.0 85.0 5.0 9.147676375112406e-41
20.0 90.0 6.0 9.147676375112406e-41
20.0 95.0 5.0 9.147676375112406e-41
20.0 100.0 5.0 9.147676375112406e-41
20.0 105.0 5.0 9.147676375112406e-41
20.0 110.0 5.0 9.147676375112406e-41
20.0 115.0 6.0 9.147676375112406e-41
20.0 120.0 7.0 9.147676375112406e-41
20.0 125.0 5.0 9.147676375112406e-41
20.0 130.0 6.0 9.147676375112406e-41
20.0 135.0 5.0 9.147676375112406e-41
20.0 140.0 6.0 9.147676375112406e-41
20.0 145.0 6.0 9.147676375112406e-41
20.0 150.0 7.0 9.147676375112406e-41
20.0 155.0 6.0 9.147676375112406e-41
20.0 160.0 7.0 9.147676375112406e-41
20.0 165.0 7.0 9.147676375112406e-41
20.0 170.0 6.0 9.147676375112406e-41
20.0 175.0 6.0 9.147676375112406e-41
20.0 180.0 5.0 9.147676375112406e-41
20.0 185.0 8.0 9.147676375112406e-41
20.0 190.0 7.0 9.147676375112406e-41
20.0 195.0 7.0 9.147676375112406e-41
20.0 200.0 7.0 9.147676375112406e-41
20.0 205.0 7.0 9.147676375112406e-41
20.0 210.0 6.0 9.147676375112406e-41
20.0 215.0 6.0 9.147676375112406e-41
20.0 220.0 6.0 9.147676375112406e-41
20.0 225.0 7.0 9.147676375112406e-41
20.0 230.0 7.0 9.147676375112406e-41
20.0 235.0 5.0 9.147676375112406e-41
20.0 240.0 6.0 9.147676375112406e-41
20.0 245.0 6.0 9.147676375112406e-41
20.0 250.0 7.0 9.147676375112406e-41
20.0 255.0 7.0 9.147676375112406e-41
20.0 260.0 7.0 9.147676375112406e-41
20.0 265.0 8.0 9.147676375112406e-41
20.0 270.0 7.0 9.147676375112406e-41
20.0 275.0 8.0 9.147676375112406e-41
20.0 280.0 9.0 9.147676375112406e-41
20.0 285.0 8.0 9.147676375112406e-41
20.0 290.0 8.0 9.147676375112406e-41
20.0 295.0 8.0 9.147676375112406e-41
20.0 300.0 8.0 9.147676375112406e-41
20.0 305.0 9.0 9.147676375112406e-41
20.0 310.0 7.0 9.147676375112406e-41
20.0 315.0 8.0 9.147676375112406e-41
20.0 320.0 9.0 9.147676375112406e-41
20.0 325.0 8.0 9.147676375112406e-41
20.0 330.0 9.0 9.147676375112406e-41
20.0 335.0 9.0 9.147676375112406e-41
20.0 340.0 9.0 9.147676375112406e-41
20.0 345.0 8.0 9.147676375112406e-41
20.0 350.0 7.0 9.147676375112406e-41
20.0 355.0 9.0 9.147676375112406e-41
20.0 360.0 9.0 9.147676375112406e-41
20.0 365.0 10.0 9.147676375112406e-41
20.0 370.0 9.0 9.147676375112406e-41
20.0 375.0 9.0 9.147676375112406e-41
20.0 380.0 10.0 9.147676375112406e-41
20.0 385.0 9.0 9.147676375112406e-41
20.0 390.0 10.0 9.147676375112406e-41
20.0 395.0 9.0 9.147676375112406e-41
20.0 400.0 9.0 9.147676375112406e-41
20.0 405.0 10.0 9.147676375112406e-41
20.0 410.0 11.0 9.147676375112406e-41
20.0 415.0 10.0 9.147676375112406e-41
20.0 420.0 10.0 9.147676375112406e-41
20.0 425.0 10.0 9.147676375112406e-41
20.0 430.0 9.0 9.147676375112406e-41
20.0 435.0 9.0 9.147676375112406e-41
20.0 440.0 10.0 9.147676375112406e-41
20.0 445.0 11.0 9.147676375112406e-41
20.0 450.0 10.0 9.147676375112406e-41
20.0 455.0 11.0 9.147676375112406e-41
20.0 460.0 10.0 9.147676375112406e-41
20.0 465.0 11.0 9.147676375112406e-41
20.0 470.0 11.0 9.147676375112406e-41
20.0 475.0 11.0 9.147676375112406e-41
20.0 480.0 12.0 9.147676375112406e-41
20.0 485.0 11.0 9.147676375112406e-41
20.0 490.0 12.0 9.147676375112406e-41
20.0 495.0 10.0 9.147676375112406e-41
20.0 500.0 10.0 9.147676375112406e-41
25.0 500.0 10.0 9.147676375112406e-41
25.0 495.0 10.0 9.147676375112406e-41
25.0 490.0 11.0 9.147676375112406e-41
25.0 485.0 10.0 9.147676375112406e-41
25.0 480.0 11.0 9.147676375112406e-41
25.0 475.0 11.0 9.147676375112406e-41
25.0 470.0 11.0 9.147676375112406e-41
25.0 465.0 10.0 9.147676375112406e-41
25.0 460.0 11.0 9.147676375112406e-41
25.0 455.0 10.0 9.147676375112406e-41
25.0 450.0 10.0 9.147676375112406e-41
25.0 445.0 11.0 9.147676375112406e-41
25.0 440.0 11.0 9.147676375112406e-41
25.0 435.0 11.0 9.147676375112406e-41
25.0 430.0 10.0 9.147676375112406e-41
25.0 425.0 10.0 9.147676375112406e-41
25.0 420.0 11.0 9.147676375112406e-41
25.0 415.0 10.0 9.147676375112406e-41
25.0 410.0 9.0 9.147676375112406e-41
25.0 405.0 9.0 9.147676375112406e-41
25.0 400.0 11.0 9.147676375112406e-41
25.0 395.0 9.0 9.147676375112406e-41
25.0 390.0 9.0 9.147676375112406e-41
25.0 385.0 10.0 9.147676375112406e-41
25.0 380.0 9.0 9.147676375112406e-41
25.0 375.0 10.0 9.147676375112406e-41
25.0 370.0 9.0 9.147676375112406e-41
25.0 365.0 11.0 9.147676375112406e-41
25.0 360.0 10.0 9.147676375112406e-41
25.0 355.0 10.0 9.147676375112406e-41
25.0 350.0 10.0 9.147676375112406e-41
25.0 345.0 11.0 9.147676375112406e-41
25.0 340.0 9.0 9.147676375112406e-41
25.0 335.0 9.0 9.147676375112406e-41
25.0 330.0 9.0 9.147676375112406e-41
25.0 325.0 10.0 9.147676375112406e-41
25.0 320.0 9.0 9.147676375112406e-41
25.0 315.0 9.0 9.147676375112406e-41
25.0 310.0 9.0 9.147676375112406e-41
25.0 305.0 9.0 9.147676375112406e-41
25.0 300.0 9.0 9.147676375112406e-41
25.0 295.0 9.0 9.147676375112406e-41
25.0 290.0 9.0 9.147676375112406e-41
25.0 285.0 10.0 9.147676375112406e-41
25.0 280.0 9.0 9.147676375112406e-41
25.0 275.0 8.0 9.147676375112406e-41
25.0 270.0 9.0 9.147676375112406e-41
25.0 265.0 8.0 9.147676375112406e-41
25.0 260.0 8.0 9.147676375112406e-41
25.0 255.0 8.0 9.147676375112406e-41
25.0 250.0 9.0 9.147676375112406e-41
25.0 245.0 8.0 9.147676375112406e-41
25.0 240.0 8.0 9.147676375112406e-41
25.0 235.0 8.0 9.147676375112406e-41
25.0 230.0 8.0 9.147676375112406e-41
25.0 225.0 9.0 9.147676375112406e-41
25.0 220.0 8.0 9.147676375112406e-41
25.0 215.0 8.0 9.147676375112406e-41
25.0 210.0 9.0 9.147676375112406e-41
25.0 205.0 8.0 9.147676375112406e-41
25.0 200.0 8.0 9.147676375112406e-41
25.0 195.0 9.0 9.147676375112406e-41
25.0 190.0 8.0 9.147676375112406e-41
25.0 185.0 8.0 9.147676375112406e-41
25.0 180.0 7.0 9.147676375112406e-41
25.0 175.0 9.0 9.147676375112406e-41
25.0 170.0 7.0 9.147676375112406e-41
25.0 165.0 7.0 9.147676375112406e-41
25.0 160.0 8.0 9.147676375112406e-41
25.0 155.0 8.0 9.147676375112406e-41
25.0 150.0 7.0 9.147676375112406e-41
25.0 145.0 9.0 9.147676375112406e-41
25.0 140.0 6.0 9.147676375112406e-41
25.0 135.0 7.0 9.147676375112406e-41
25.0 130.0 7.0 9.147676375112406e-41
25.0 125.0 8.0 9.147676375112406e-41
25.0 120.0 8.0 9.147676375112406e-41
25.0 115.0 8.0 9.147676375112406e-41
25.0 110.0 8.0 9.147676375112406e-41
25.0 105.0 7.0 9.147676375112406e-41
25.0 100.0 7.0 9.147676375112406e-41
25.0 95.0 7.0 9.147676375112406e-41
25.0 90.0 8.0 9.147676375112406e-41
25.0 85.0 7.0 9.147676375112406e-41
25.0 80.0 6.0 9.147676375112406e-41
25.0 75.0 6.0 9.147676375112406e-41
25.0 70.0 6.0 9.147676375112406e-41
25.0 65.0 6.0 9.147676375112406e-41
25.0 60.0 6.0 9.147676375112406e-41
25.0 55.0 6.0 9.147676375112406e-41
25.0 50.0 6.0 9.147676375112406e-41
25.0 45.0 6.0 9.147676375112406e-41
25.0 40.0 6.0 9.147676375112406e-41
25.0 35.0 5.0 9.147676375112406e-41
25.0 30.0 5.0 9.147676375112406e-41
25.0 25.0 4.0 9.147676375112406e-41
25.0 20.0 4.0 9.147676375112406e-41
25.0 15.0 4.0 9.147676375112406e-41
25.0 10.0 3.0 9.147676375112406e-41
25.0 5.0 3.0 9.147676375112406e-41
25.0 0.0 4.0 9.147676375112406e-41
30.0 0.0 3.0 9.147676375112406e-41
30.0 5.0 3.0 9.147676375112406e-41
30.0 10.0 4.0 9.147676375112406e-41
30.0 15.0 3.0 9.147676375112406e-41
30.0 20.0 3.0 9.147676375112406e-41
30.0 25.0 3.0 9.147676375112406e-41
30.0 30.0 3.0 9.147676375112406e-41
30.0 35.0 3.0 9.147676375112406e-41
30.0 40.0 5.0 9.147676375112406e-41
30.0 45.0 5.0 9.147676375112406e-41
30.0 50.0 5.0 9.147676375112406e-41
30.0 55.0 3.0 9.147676375112406e-41
30.0 60.0 5.0 9.147676375112406e-41
30.0 65.0 3.0 9.147676375112406e-41
30.0 70.0 5.0 9.147676375112406e-41
30.0 75.0 5.0 9.147676375112406e-41
30.0 80.0 5.0 9.147676375112406e-41
30.0 85.0 5.0 9.147676375112406e-41
30.0 90.0 6.0 9.147676375112406e-41
30.0 95.0 5.0 9.147676375112406e-41
30.0 100.0 6.0 9.147676375112406e-41
30.0 105.0 5.0 9.147676375112406e-41
30.0 110.0 6.0 9.147676375112406e-41
30.0 115.0 6.0 9.147676375112406e-41
30.0 120.0 6.0 9.147676375112406e-41
30.0 125.0 6.0 9.147676375112406e-41
30.0 130.0 6.0 9.147676375112406e-41
30.0 135.0 5.0 9.147676375112406e-41
30.0 140.0 6.0 9.147676375112406e-41
30.0 145.0 6.0 9.147676375112406e-41
30.0 150.0 6.0 9.147676375112406e-41
30.0 155.0 5.0 9.147676375112406e-41
30.0 160.0 7.0 9.147676375112406e-41
30.0 165.0 7.0 9.147676375112406e-41
30.0 170.0 6.0 9.147676375112406e-41
30.0 175.0 6.0 9.147676375112406e-41
30.0 180.0 6.0 9.147676375112406e-41
30.0 185.0 7.0 9.147676375112406e-41
30.0 190.0 6.0 9.147676375112406e-41
30.0 195.0 6.0 9.147676375112406e-41
30.0 200.0 5.0 9.147676375112406e-41
30.0 205.0 6.0 9.147676375112406e-41
30.0 210.0 8.0 9.147676375112406e-41
30.0 215.0 6.0 9.147676375112406e-41
30.0 220.0 7.0 9.147676375112406e-41
30.0 225.0 7.0 9.147676375112406e-41
30.0 230.0 8.0 9.147676375112406e-41
30.0 235.0 7.0 9.147676375112406e-41
30.0 240.0 6.0 9.147676375112406e-41
30.0 245.0 6.0 9.147676375112406e-41
30.0 250.0 7.0 9.147676375112406e-41
30.0 255.0 7.0 9.147676375112406e-41
30.0 260.0 7.0 9.147676375112406e-41
30.0 265.0 8.0 9.147676375112406e-41
30.0 270.0 8.0 9.147676375112406e-41
30.0 275.0 8.0 9.147676375112406e-41
30.0 280.0 8.0 9.147676375112406e-41
30.0 285.0 7.0 9.147676375112406e-41
30.0 290.0 8.0 9.147676375112406e-41
30.0 295.0 7.0 9.147676375112406e-41
30.0 300.0 8.0 9.147676375112406e-41
30.0 305.0 8.0 9.147676375112406e-41
30.0 310.0 7.0 9.147676375112406e-41
30.0 315.0 6.0 9.147676375112406e-41
30.0 320.0 8.0 9.147676375112406e-41
30.0 325.0 8.0 9.147676375112406e-41
30.0 330.0 7.0 9.147676375112406e-41
30.0 335.0 9.0 9.147676375112406e-41
30.0 340.0 9.0 9.147676375112406e-41
30.0 345.0 8.0 9.147676375112406e-41
30.0 350.0 8.0 9.147676375112406e-41
30.0 355.0 8.0 9.147676375112406e-41
30.0 360.0 9.0 9.147676375112406e-41
30.0 365.0 9.0 9.147676375112406e-41
30.0 370.0 9.0 9.147676375112406e-41
30.0 375.0 10.0 9.147676375112406e-41
30.0 380.0 10.0 9.147676375112406e-41
30.0 385.0 8.0 9.147676375112406e-41
30.0 390.0 10.0 9.147676375112406e-41
30.0 395.0 9.0 9.147676375112406e-41
30.0 400.0 9.0 9.147676375112406e-41
30.0 405.0 10.0 9.147676375112406e-41
30.0 410.0 10.0 9.147676375112406e-41
30.0 415.0 10.0 9.147676375112406e-41
30.0 420.0 10.0 9.147676375112406e-41
30.0 425.0 10.0 9.147676375112406e-41
30.0 430.0 10.0 9.147676375112406e-41
30.0 435.0 10.0 9.147676375112406e-41
30.0 440.0 10.0 9.147676375112406e-41
30.0 445.0 11.0 9.147676375112406e-41
30.0 450.0 11.0 9.147676375112406e-41
30.0 455.0 12.0 9.147676375112406e-41
30.0 460.0 10.0 9.147676375112406e-41
30.0 465.0 11.0 9.147676375112406e-41
30.0 470.0 11.0 9.147676375112406e-41
30.0 475.0 11.0 9.147676375112406e-41
30.0 480.0 10.0 9.147676375112406e-41
30.0 485.0 11.0 9.147676375112406e-41
30.0 490.0 12.0 9.147676375112406e-41
30.0 495.0 11.0 9.147676375112406e-41
30.0 500.0 10.0 9.147676375112406e-41
35.0 500.0 10.0 9.147676375112406e-41
35.0 495.0 10.0 9.147676375112406e-41
35.0 490.0 11.0 9.147676375112406e-41
35.0 485.0 11.0 9.147676375112406e-41
35.0 480.0 10.0 9.147676375112406e-41
35.0 475.0 10.0 9.147676375112406e-41
35.0 470.0 11.0 9.147676375112406e-41
35.0 465.0 11.0 9.147676375112406e-41
35.0 460.0 11.0 9.147676375112406e-41
35.0 455.0 11.0 9.147676375112406e-41
35.0 450.0 11.0 9.147676375112406e-41
35.0 445.0 11.0 9.147676375112406e-41
35.0 440.0 11.0 9.147676375112406e-41
35.0 435.0 11.0 9.147676375112406e-41
35.0 430.0 11.0 9.147676375112406e-41
35.0 425.0 10.0 9.147676375112406e-41
35.0 420.0 11.0 9.147676375112406e-41
35.0 415.0 11.0 9.147676375112406e-41
35.0 410.0 11.0 9.147676375112406e-41
35.0 405.0 10.0 9.147676375112406e-41
35.0 400.0 9.0 9.147676375112406e-41
35.0 395.0 10.0 9.147676375112406e-41
35.0 390.0 11.0 9.147676375112406e-41
35.0 385.0 9.0 9.147676375112406e-41
35.0 380.0 9.0 9.147676375112406e-41
35.0 375.0 10.0 9.147676375112406e-41
35.0 370.0 10.0 9.147676375112406e-41
35.0 365.0 10.0 9.147676375112406e-41
35.0 360.0 9.0 9.147676375112406e-41
35.0 355.0 9.0 9.147676375112406e-41
35.0 350.0 8.0 9.147676375112406e-41
35.0 345.0 10.0 9.147676375112406e-41
35.0 340.0 9.0 9.147676375112406e-41
35.0 335.0 9.0 9.147676375112406e-41
35.0 330.0 10.0 9.147676375112406e-41
35.0 325.0 9.0 9.147676375112406e-41
35.0 320.0 9.0 9.147676375112406e-41
35.0 315.0 10.0 9.147676375112406e-41
35.0 310.0 9.0 9.147676375112406e-41
35.0 305.0 9.0 9.147676375112406e-41
35.0 300.0 9.0 9.147676375112406e-41
35.0 295.0 10.0 9.147676375112406e-41
35.0 290.0 8.0 9.147676375112406e-41
35.0 285.0 10.0 9.147676375112406e-41
35.0 280.0 8.0 9.147676375112406e-41
35.0 275.0 9.0 9.147676375112406e-41
35.0 270.0 9.0 9.147676375112406e-41
35.0 265.0 9.0 9.147676375112406e-41
35.0 260.0 10.0 9.147676375112406e-41
35.0 255.0 9.0 9.147676375112406e-41
35.0 250.0 9.0 9.147676375112406e-41
35.0 245.0 9.0 9.147676375112406e-41
35.0 240.0 9.0 9.147676375112406e-41
35.0 235.0 9.0 9.147676375112406e-41
35.0 230.0 8.0 9.147676375112406e-41
35.0 225.0 9.0 9.147676375112406e-41
35.0 220.0 8.0 9.147676375112406e-41
35.0 215.0 8.0 9.147676375112406e-41
35.0 210.0 6.0 9.147676375112406e-41
35.0 205.0 7.0 9.147676375112406e-41
35.0 200.0 7.0 9.147676375112406e-41
35.0 195.0 6.0 9.147676375112406e-41
35.0 190.0 8.0 9.147676375112406e-41
35.0 185.0 8.0 9.147676375112406e-41
35.0 180.0 7.0 9.147676375112406e-41
35.0 175.0 8.0 9.147676375112406e-41
35.0 170.0 7.0 9.147676375112406e-41
35.0 165.0 7.0 9.147676375112406e-41
35.0 160.0 6.0 9.147676375112406e-41
35.0 155.0 6.0 9.147676375112406e-41
35.0 150.0 7.0 9.147676375112406e-41
35.0 145.0 6.0 9.147676375112406e-41
35.0 140.0 8.0 9.147676375112406e-41
35.0 135.0 7.0 9.147676375112406e-41
35.0 130.0 6.0 9.147676375112406e-41
35.0 125.0 7.0 9.147676375112406e-41
35.0 120.0 7.0 9.147676375112406e-41
35.0 115.0 6.0 9.147676375112406e-41
35.0 110.0 6.0 9.147676375112406e-41
35.0 105.0 7.0 9.147676375112406e-41
35.0 100.0 6.0 9.147676375112406e-41
35.0 95.0 6.0 9.147676375112406e-41
35.0 90.0 8.0 9.147676375112406e-41
35.0 85.0 7.0 9.147676375112406e-41
35.0 80.0 6.0 9.147676375112406e-41
35.0 75.0 6.0 9.147676375112406e-41
35.0 70.0 7.0 9.147676375112406e-41
35.0 65.0 6.0 9.147676375112406e-41
35.0 60.0 7.0 9.147676375112406e-41
35.0 55.0 7.0 9.147676375112406e-41
35.0 50.0 7.0 9.147676375112406e-41
35.0 45.0 6.0 9.147676375112406e-41
35.0 40.0 7.0 9.147676375112406e-41
35.0 35.0 5.0 9.147676375112406e-41
35.0 30.0 6.0 9.147676375112406e-41
35.0 25.0 5.0 9.147676375112406e-41
35.0 20.0 4.0 9.147676375112406e-41
35.0 15.0 4.0 9.147676375112406e-41
35.0 10.0 4.0 9.147676375112406e-41
35.0 5.0 4.0 9.147676375112406e-41
35.0 0.0 3.0 9.147676375112406e-41
40.0 0.0 2.0 9.147676375112406e-41
40.0 5.0 3.0 9.147676375112406e-41
40.0 10.0 4.0 9.147676375112406e-41
40.0 15.0 3.0 9.147676375112406e-41
40.0 20.0 4.0 9.147676375112406e-41
40.0 25.0 4.0 9.147676375112406e-41
40.0 30.0 5.0 9.147676375112406e-41
40.0 35.0 4.0 9.147676375112406e-41
40.0 40.0 4.0 9.147676375112406e-41
40.0 45.0 5.0 9.147676375112406e-41
40.0 50.0 5.0 9.147676375112406e-41
40.0 55.0 4.0 9.147676375112406e-41
40.0 60.0 4.0 9.147676375112406e-41
40.0 65.0 4.0 9.147676375112406e-41
40.0 70.0 5.0 9.147676375112406e-41
40.0 75.0 11.0 9.147676375112406e-41
40.0 80.0 10.0 9.147676375112406e-41
40.0 85.0 9.0 9.147676375112406e-41
40.0 90.0 8.0 9.147676375112406e-41
40.0 95.0 8.0 9.147676375112406e-41
40.0 100.0 11.0 9.147676375112406e-41
40.0 105.0 9.0 9.147676375112406e-41
40.0 110.0 14.0 9.147676375112406e-41
40.0 115.0 16.0 9.147676375112406e-41
40.0 120.0 11.0 9.147676375112406e-41
40.0 125.0 10.0 9.147676375112406e-41
40.0 130.0 9.0 9.147676375112406e-41
40.0 135.0 11.0 9.147676375112406e-41
40.0 140.0 11.0 9.147676375112406e-41
40.0 145.0 10.0 9.147676375112406e-41
40.0 150.0 10.0 9.147676375112406e-41
40.0 155.0 11.0 9.147676375112406e-41
40.0 160.0 11.0 9.147676375112406e-41
40.0 165.0 12.0 9.147676375112406e-41
40.0 170.0 11.0 9.147676375112406e-41
40.0 175.0 11.0 9.147676375112406e-41
40.0 180.0 11.0 9.147676375112406e-41
40.0 185.0 11.0 9.147676375112406e-41
40.0 190.0 11.0 9.147676375112406e-41
40.0 195.0 12.0 9.147676375112406e-41
40.0 200.0 12.0 9.147676375112406e-41
40.0 205.0 12.0 9.147676375112406e-41
40.0 210.0 12.0 9.147676375112406e-41
40.0 215.0 12.0 9.147676375112406e-41
40.0 220.0 11.0 9.147676375112406e-41
40.0 225.0 12.0 9.147676375112406e-41
40.0 230.0 12.0 9.147676375112406e-41
40.0 235.0 11.0 9.147676375112406e-41
40.0 240.0 15.0 9.147676375112406e-41
40.0 245.0 14.0 9.147676375112406e-41
40.0 250.0 12.0 9.147676375112406e-41
40.0 255.0 11.0 9.147676375112406e-41
40.0 260.0 12.0 9.147676375112406e-41
40.0 265.0 12.0 9.147676375112406e-41
40.0 270.0 12.0 9.147676375112406e-41
40.0 275.0 12.0 9.147676375112406e-41
40.0 280.0 12.0 9.147676375112406e-41
40.0 285.0 14.0 9.147676375112406e-41
40.0 290.0 14.0 9.147676375112406e-41
40.0 295.0 14.0 9.147676375112406e-41
40.0 300.0 16.0 9.147676375112406e-41
40.0 305.0 15.0 9.147676375112406e-41
40.0 310.0 16.0 9.147676375112406e-41
40.0 315.0 12.0 9.147676375112406e-41
40.0 320.0 12.0 9.147676375112406e-41
40.0 325.0 12.0 9.147676375112406e-41
40.0 330.0 12.0 9.147676375112406e-41
40.0 335.0 16.0 9.147676375112406e-41
40.0 340.0 16.0 9.147676375112406e-41
40.0 345.0 14.0 9.147676375112406e-41
40.0 350.0 14.0 9.147676375112406e-41
40.0 355.0 12.0 9.147676375112406e-41
40.0 360.0 12.0 9.147676375112406e-41
40.0 365.0 12.0 9.147676375112406e-41
40.0 370.0 12.0 9.147676375112406e-41
40.0 375.0 15.0 9.147676375112406e-41
40.0 380.0 15.0 9.147676375112406e-41
40.0 385.0 14.0 9.147676375112406e-41
40.0 390.0 14.0 9.147676375112406e-41
40.0 395.0 14.0 9.147676375112406e-41
40.0 400.0 12.0 9.147676375112406e-41
40.0 405.0 20.0 9.147676375112406e-41
40.0 410.0 19.0 9.147676375112406e-41
40.0 415.0 21.0 9.147676375112406e-41
40.0 420.0 14.0 9.147676375112406e-41
40.0 425.0 12.0 9.147676375112406e-41
40.0 430.0 11.0 9.147676375112406e-41
40.0 435.0 12.0 9.147676375112406e-41
40.0 440.0 11.0 9.147676375112406e-41
40.0 445.0 12.0 9.147676375112406e-41
40.0 450.0 12.0 9.147676375112406e-41
40.0 455.0 12.0 9.147676375112406e-41
40.0 460.0 12.0 9.147676375112406e-41
40.0 465.0 12.0 9.147676375112406e-41
40.0 470.0 12.0 9.147676375112406e-41
40.0 475.0 11.0 9.147676375112406e-41
40.0 480.0 11.0 9.147676375112406e-41
40.0 485.0 12.0 9.147676375112406e-41
40.0 490.0 11.0 9.147676375112406e-41
40.0 495.0 11.0 9.147676375112406e-41
40.0 500.0 10.0 9.147676375112406e-41
45.0 500.0 10.0 9.147676375112406e-41
45.0 495.0 10.0 9.147676375112406e-41
45.0 490.0 10.0 9.147676375112406e-41
45.0 485.0 10.0 9.147676375112406e-41
45.0 480.0 12.0 9.147676375112406e-41
45.0 475.0 11.0 9.147676375112406e-41
45.0 470.0 11.0 9.147676375112406e-41
45.0 465.0 12.0 9.147676375112406e-41
45.0 460.0 11.0 9.147676375112406e-41
45.0 455.0 12.0 9.147676375112406e-41
45.0 450.0 11.0 9.147676375112406e-41
45.0 445.0 12.0 9.147676375112406e-41
45.0 440.0 12.0 9.147676375112406e-41
45.0 435.0 14.0 9.147676375112406e-41
45.0 430.0 11.0 9.147676375112406e-41
45.0 425.0 12.0 9.147676375112406e-41
45.0 420.0 12.0 9.147676375112406e-41
45.0 415.0 11.0 9.147676375112406e-41
45.0 410.0 12.0 9.147676375112406e-41
45.0 405.0 12.0 9.147676375112406e-41
45.0 400.0 11.0 9.147676375112406e-41
45.0 395.0 11.0 9.147676375112406e-41
45.0 390.0 11.0 9.147676375112406e-41
45.0 385.0 11.0 9.147676375112406e-41
45.0 380.0 14.0 9.147676375112406e-41
45.0 375.0 12.0 9.147676375112406e-41
45.0 370.0 14.0 9.147676375112406e-41
45.0 365.0 15.0 9.147676375112406e-41
45.0 360.0 16.0 9.147676375112406e-41
45.0 355.0 22.0 9.147676375112406e-41
45.0 350.0 25.0 9.147676375112406e-41
45.0 345.0 29.0 9.147676375112406e-41
45.0 340.0 31.0 9.147676375112406e-41
45.0 335.0 32.0 9.147676375112406e-41
45.0 330.0 33.0 9.147676375112406e-41
45.0 325.0 34.0 9.147676375112406e-41
45.0 320.0 33.0 9.147676375112406e-41
45.0 315.0 35.0 9.147676375112406e-41
45.0 310.0 33.0 9.147676375112406e-41
45.0 305.0 34.0 9.147676375112406e-41
45.0 300.0 34.0 9.147676375112406e-41
45.0 295.0 34.0 9.147676375112406e-41
45.0 290.0 35.0 9.147676375112406e-41
45.0 285.0 34.0 9.147676375112406e-41
45.0 280.0 35.0 9.147676375112406e-41
45.0 275.0 35.0 9.147676375112406e-41
45.0 270.0 34.0 9.147676375112406e-41
45.0 265.0 34.0 9.147676375112406e-41
45.0 260.0 35.0 9.147676375112406e-41
45.0 255.0 34.0 9.147676375112406e-41
45.0 250.0 36.0 9.147676375112406e-41
45.0 245.0 34.0 9.147676375112406e-41
45.0 240.0 36.0 9.147676375112406e-41
45.0 235.0 35.0 9.147676375112406e-41
45.0 230.0 35.0 9.147676375112406e-41
45.0 225.0 33.0 9.147676375112406e-41
45.0 220.0 33.0 9.147676375112406e-41
45.0 215.0 33.0 9.147676375112406e-41
45.0 210.0 33.0 9.147676375112406e-41
45.0 205.0 33.0 9.147676375112406e-41
45.0 200.0 36.0 9.147676375112406e-41
45.0 195.0 34.0 9.147676375112406e-41
45.0 190.0 34.0 9.147676375112406e-41
45.0 185.0 34.0 9.147676375112406e-41
45.0 180.0 33.0 9.147676375112406e-41
45.0 175.0 34.0 9.147676375112406e-41
45.0 170.0 33.0 9.147676375112406e-41
45.0 165.0 33.0 9.147676375112406e-41
45.0 160.0 33.0 9.147676375112406e-41
45.0 155.0 34.0 9.147676375112406e-41
45.0 150.0 34.0 9.147676375112406e-41
45.0 145.0 34.0 9.147676375112406e-41
45.0 140.0 35.0 9.147676375112406e-41
45.0 135.0 34.0 9.147676375112406e-41
45.0 130.0 34.0 9.147676375112406e-41
45.0 125.0 34.0 9.147676375112406e-41
45.0 120.0 35.0 9.147676375112406e-41
45.0 115.0 40.0 9.147676375112406e-41
45.0 110.0 39.0 9.147676375112406e-41
45.0 105.0 36.0 9.147676375112406e-41
45.0 100.0 36.0 9.147676375112406e-41
45.0 95.0 35.0 9.147676375112406e-41
45.0 90.0 33.0 9.147676375112406e-41
45.0 85.0 32.0 9.147676375112406e-41
45.0 80.0 31.0 9.147676375112406e-41
45.0 75.0 31.0 9.147676375112406e-41
45.0 70.0 20.0 9.147676375112406e-41
45.0 65.0 20.0 9.147676375112406e-41
45.0 60.0 15.0 9.147676375112406e-41
45.0 55.0 10.0 9.147676375112406e-41
45.0 50.0 8.0 9.147676375112406e-41
