# .PCD v.7 - Point Cloud Data file format
VERSION .7
FIELDS x y z rgb
SIZE 4 4 4 4
TYPE F F F F
COUNT 1 1 1 1
WIDTH 743
HEIGHT 1
VIEWPOINT 0 0 0 1 0 0 0
POINTS 743
DATA ascii
0.0 40.0 2.0 9.147676375112406e-41
0.0 140.0 2.0 9.147676375112406e-41
0.0 150.0 2.0 9.147676375112406e-41
0.0 160.0 3.0 9.147676375112406e-41
0.0 180.0 2.0 9.147676375112406e-41
0.0 190.0 2.0 9.147676375112406e-41
0.0 210.0 3.0 9.147676375112406e-41
0.0 220.0 2.0 9.147676375112406e-41
0.0 230.0 2.0 9.147676375112406e-41
0.0 240.0 2.0 9.147676375112406e-41
0.0 250.0 2.0 9.147676375112406e-41
0.0 260.0 2.0 9.147676375112406e-41
0.0 270.0 3.0 9.147676375112406e-41
0.0 280.0 2.0 9.147676375112406e-41
0.0 290.0 3.0 9.147676375112406e-41
0.0 300.0 5.0 9.147676375112406e-41
0.0 310.0 2.0 9.147676375112406e-41
0.0 320.0 3.0 9.147676375112406e-41
0.0 330.0 3.0 9.147676375112406e-41
0.0 340.0 3.0 9.147676375112406e-41
0.0 350.0 4.0 9.147676375112406e-41
0.0 360.0 5.0 9.147676375112406e-41
0.0 370.0 4.0 9.147676375112406e-41
0.0 380.0 4.0 9.147676375112406e-41
0.0 390.0 4.0 9.147676375112406e-41
0.0 400.0 4.0 9.147676375112406e-41
0.0 410.0 5.0 9.147676375112406e-41
0.0 420.0 3.0 9.147676375112406e-41
0.0 430.0 4.0 9.147676375112406e-41
0.0 440.0 3.0 9.147676375112406e-41
0.0 450.0 4.0 9.147676375112406e-41
0.0 460.0 4.0 9.147676375112406e-41
0.0 470.0 3.0 9.147676375112406e-41
0.0 480.0 3.0 9.147676375112406e-41
0.0 490.0 4.0 9.147676375112406e-41
0.0 500.0 3.0 9.147676375112406e-41
10.0 500.0 3.0 9.147676375112406e-41
10.0 490.0 3.0 9.147676375112406e-41
10.0 480.0 2.0 9.147676375112406e-41
10.0 470.0 3.0 9.147676375112406e-41
10.0 460.0 3.0 9.147676375112406e-41
10.0 450.0 3.0 9.147676375112406e-41
10.0 440.0 3.0 9.147676375112406e-41
10.0 430.0 3.0 9.147676375112406e-41
10.0 420.0 4.0 9.147676375112406e-41
10.0 410.0 3.0 9.147676375112406e-41
10.0 400.0 3.0 9.147676375112406e-41
10.0 390.0 3.0 9.147676375112406e-41
10.0 380.0 3.0 9.147676375112406e-41
10.0 370.0 3.0 9.147676375112406e-41
10.0 360.0 3.0 9.147676375112406e-41
10.0 350.0 2.0 9.147676375112406e-41
10.0 340.0 2.0 9.147676375112406e-41
10.0 330.0 3.0 9.147676375112406e-41
10.0 320.0 3.0 9.147676375112406e-41
10.0 310.0 3.0 9.147676375112406e-41
10.0 300.0 2.0 9.147676375112406e-41
10.0 290.0 2.0 9.147676375112406e-41
10.0 280.0 2.0 9.147676375112406e-41
10.0 270.0 3.0 9.147676375112406e-41
10.0 260.0 2.0 9.147676375112406e-41
10.0 250.0 2.0 9.147676375112406e-41
10.0 240.0 3.0 9.147676375112406e-41
10.0 230.0 2.0 9.147676375112406e-41
10.0 220.0 2.0 9.147676375112406e-41
10.0 210.0 2.0 9.147676375112406e-41
10.0 200.0 2.0 9.147676375112406e-41
10.0 190.0 2.0 9.147676375112406e-41
10.0 170.0 2.0 9.147676375112406e-41
10.0 160.0 2.0 9.147676375112406e-41
10.0 150.0 2.0 9.147676375112406e-41
10.0 130.0 2.0 9.147676375112406e-41
10.0 120.0 3.0 9.147676375112406e-41
20.0 380.0 2.0 9.147676375112406e-41
20.0 420.0 3.0 9.147676375112406e-41
20.0 440.0 2.0 9.147676375112406e-41
20.0 450.0 2.0 9.147676375112406e-41
20.0 460.0 2.0 9.147676375112406e-41
20.0 470.0 2.0 9.147676375112406e-41
20.0 480.0 3.0 9.147676375112406e-41
20.0 490.0 2.0 9.147676375112406e-41
30.0 500.0 2.0 9.147676375112406e-41
30.0 470.0 3.0 9.147676375112406e-41
30.0 460.0 2.0 9.147676375112406e-41
30.0 440.0 3.0 9.147676375112406e-41
30.0 430.0 2.0 9.147676375112406e-41
30.0 420.0 3.0 9.147676375112406e-41
30.0 410.0 2.0 9.147676375112406e-41
30.0 400.0 2.0 9.147676375112406e-41
30.0 380.0 2.0 9.147676375112406e-41
30.0 360.0 2.0 9.147676375112406e-41
30.0 300.0 2.0 9.147676375112406e-41
30.0 260.0 2.0 9.147676375112406e-41
30.0 250.0 2.0 9.147676375112406e-41
40.0 390.0 2.0 9.147676375112406e-41
40.0 430.0 2.0 9.147676375112406e-41
40.0 460.0 3.0 9.147676375112406e-41
40.0 470.0 2.0 9.147676375112406e-41
40.0 490.0 2.0 9.147676375112406e-41
40.0 500.0 2.0 9.147676375112406e-41
50.0 500.0 3.0 9.147676375112406e-41
50.0 480.0 3.0 9.147676375112406e-41
50.0 470.0 3.0 9.147676375112406e-41
50.0 460.0 5.0 9.147676375112406e-41
50.0 450.0 8.0 9.147676375112406e-41
50.0 440.0 12.0 9.147676375112406e-41
50.0 430.0 14.0 9.147676375112406e-41
50.0 420.0 16.0 9.147676375112406e-41
50.0 410.0 17.0 9.147676375112406e-41
50.0 400.0 18.0 9.147676375112406e-41
50.0 390.0 18.0 9.147676375112406e-41
50.0 380.0 18.0 9.147676375112406e-41
50.0 370.0 18.0 9.147676375112406e-41
50.0 360.0 17.0 9.147676375112406e-41
50.0 350.0 17.0 9.147676375112406e-41
50.0 340.0 18.0 9.147676375112406e-41
50.0 330.0 18.0 9.147676375112406e-41
50.0 320.0 17.0 9.147676375112406e-41
50.0 310.0 18.0 9.147676375112406e-41
50.0 300.0 17.0 9.147676375112406e-41
50.0 290.0 18.0 9.147676375112406e-41
50.0 280.0 18.0 9.147676375112406e-41
50.0 270.0 16.0 9.147676375112406e-41
50.0 260.0 15.0 9.147676375112406e-41
50.0 250.0 10.0 9.147676375112406e-41
50.0 240.0 3.0 9.147676375112406e-41
50.0 230.0 2.0 9.147676375112406e-41
50.0 210.0 2.0 9.147676375112406e-41
60.0 230.0 5.0 9.147676375112406e-41
60.0 240.0 10.0 9.147676375112406e-41
60.0 250.0 14.0 9.147676375112406e-41
60.0 260.0 17.0 9.147676375112406e-41
60.0 270.0 18.0 9.147676375112406e-41
60.0 280.0 18.0 9.147676375112406e-41
60.0 290.0 17.0 9.147676375112406e-41
60.0 300.0 17.0 9.147676375112406e-41
60.0 310.0 18.0 9.147676375112406e-41
60.0 320.0 17.0 9.147676375112406e-41
60.0 330.0 16.0 9.147676375112406e-41
60.0 340.0 17.0 9.147676375112406e-41
60.0 350.0 16.0 9.147676375112406e-41
60.0 360.0 16.0 9.147676375112406e-41
60.0 370.0 17.0 9.147676375112406e-41
60.0 380.0 17.0 9.147676375112406e-41
60.0 390.0 17.0 9.147676375112406e-41
60.0 400.0 19.0 9.147676375112406e-41
60.0 410.0 17.0 9.147676375112406e-41
60.0 420.0 18.0 9.147676375112406e-41
60.0 430.0 16.0 9.147676375112406e-41
60.0 440.0 13.0 9.147676375112406e-41
60.0 450.0 9.0 9.147676375112406e-41
60.0 460.0 8.0 9.147676375112406e-41
60.0 470.0 5.0 9.147676375112406e-41
60.0 480.0 4.0 9.147676375112406e-41
60.0 490.0 3.0 9.147676375112406e-41
60.0 500.0 3.0 9.147676375112406e-41
70.0 500.0 3.0 9.147676375112406e-41
70.0 490.0 5.0 9.147676375112406e-41
70.0 480.0 7.0 9.147676375112406e-41
70.0 470.0 10.0 9.147676375112406e-41
70.0 460.0 13.0 9.147676375112406e-41
70.0 450.0 17.0 9.147676375112406e-41
70.0 440.0 18.0 9.147676375112406e-41
70.0 430.0 18.0 9.147676375112406e-41
70.0 420.0 19.0 9.147676375112406e-41
70.0 410.0 18.0 9.147676375112406e-41
70.0 400.0 18.0 9.147676375112406e-41
70.0 390.0 17.0 9.147676375112406e-41
70.0 380.0 17.0 9.147676375112406e-41
70.0 370.0 17.0 9.147676375112406e-41
70.0 360.0 18.0 9.147676375112406e-41
70.0 350.0 18.0 9.147676375112406e-41
70.0 340.0 17.0 9.147676375112406e-41
70.0 330.0 19.0 9.147676375112406e-41
70.0 320.0 18.0 9.147676375112406e-41
70.0 310.0 18.0 9.147676375112406e-41
70.0 300.0 17.0 9.147676375112406e-41
70.0 290.0 18.0 9.147676375112406e-41
70.0 280.0 18.0 9.147676375112406e-41
70.0 270.0 20.0 9.147676375112406e-41
70.0 260.0 18.0 9.147676375112406e-41
70.0 250.0 17.0 9.147676375112406e-41
70.0 240.0 9.0 9.147676375112406e-41
70.0 230.0 3.0 9.147676375112406e-41
70.0 200.0 2.0 9.147676375112406e-41
70.0 110.0 2.0 9.147676375112406e-41
80.0 230.0 7.0 9.147676375112406e-41
80.0 240.0 11.0 9.147676375112406e-41
80.0 250.0 14.0 9.147676375112406e-41
80.0 260.0 19.0 9.147676375112406e-41
80.0 270.0 19.0 9.147676375112406e-41
80.0 280.0 18.0 9.147676375112406e-41
80.0 290.0 18.0 9.147676375112406e-41
80.0 300.0 17.0 9.147676375112406e-41
80.0 310.0 18.0 9.147676375112406e-41
80.0 320.0 18.0 9.147676375112406e-41
80.0 330.0 18.0 9.147676375112406e-41
80.0 340.0 17.0 9.147676375112406e-41
80.0 350.0 18.0 9.147676375112406e-41
80.0 360.0 18.0 9.147676375112406e-41
80.0 370.0 17.0 9.147676375112406e-41
80.0 380.0 17.0 9.147676375112406e-41
80.0 390.0 18.0 9.147676375112406e-41
80.0 400.0 18.0 9.147676375112406e-41
80.0 410.0 18.0 9.147676375112406e-41
80.0 420.0 16.0 9.147676375112406e-41
80.0 430.0 16.0 9.147676375112406e-41
80.0 440.0 12.0 9.147676375112406e-41
80.0 450.0 8.0 9.147676375112406e-41
80.0 460.0 8.0 9.147676375112406e-41
80.0 470.0 4.0 9.147676375112406e-41
80.0 480.0 4.0 9.147676375112406e-41
80.0 490.0 2.0 9.147676375112406e-41
80.0 500.0 3.0 9.147676375112406e-41
90.0 500.0 7.0 9.147676375112406e-41
90.0 490.0 4.0 9.147676375112406e-41
90.0 480.0 7.0 9.147676375112406e-41
90.0 470.0 8.0 9.147676375112406e-41
90.0 460.0 15.0 9.147676375112406e-41
90.0 450.0 17.0 9.147676375112406e-41
90.0 440.0 18.0 9.147676375112406e-41
90.0 430.0 18.0 9.147676375112406e-41
90.0 420.0 18.0 9.147676375112406e-41
90.0 410.0 18.0 9.147676375112406e-41
90.0 400.0 18.0 9.147676375112406e-41
90.0 390.0 18.0 9.147676375112406e-41
90.0 380.0 17.0 9.147676375112406e-41
90.0 370.0 17.0 9.147676375112406e-41
90.0 360.0 18.0 9.147676375112406e-41
90.0 350.0 16.0 9.147676375112406e-41
90.0 340.0 17.0 9.147676375112406e-41
90.0 330.0 19.0 9.147676375112406e-41
90.0 320.0 18.0 9.147676375112406e-41
90.0 310.0 18.0 9.147676375112406e-41
90.0 300.0 18.0 9.147676375112406e-41
90.0 290.0 17.0 9.147676375112406e-41
90.0 280.0 19.0 9.147676375112406e-41
90.0 270.0 19.0 9.147676375112406e-41
90.0 260.0 19.0 9.147676375112406e-41
90.0 250.0 14.0 9.147676375112406e-41
90.0 240.0 8.0 9.147676375112406e-41
90.0 230.0 4.0 9.147676375112406e-41
90.0 210.0 2.0 9.147676375112406e-41
90.0 200.0 2.0 9.147676375112406e-41
100.0 230.0 2.0 9.147676375112406e-41
100.0 240.0 8.0 9.147676375112406e-41
100.0 250.0 11.0 9.147676375112406e-41
100.0 260.0 15.0 9.147676375112406e-41
100.0 270.0 17.0 9.147676375112406e-41
100.0 280.0 16.0 9.147676375112406e-41
100.0 290.0 16.0 9.147676375112406e-41
100.0 300.0 17.0 9.147676375112406e-41
100.0 310.0 17.0 9.147676375112406e-41
100.0 320.0 16.0 9.147676375112406e-41
100.0 330.0 17.0 9.147676375112406e-41
100.0 340.0 16.0 9.147676375112406e-41
100.0 350.0 16.0 9.147676375112406e-41
100.0 360.0 17.0 9.147676375112406e-41
100.0 370.0 15.0 9.147676375112406e-41
100.0 380.0 15.0 9.147676375112406e-41
100.0 390.0 15.0 9.147676375112406e-41
100.0 400.0 14.0 9.147676375112406e-41
100.0 410.0 12.0 9.147676375112406e-41
100.0 420.0 11.0 9.147676375112406e-41
100.0 430.0 9.0 9.147676375112406e-41
100.0 440.0 4.0 9.147676375112406e-41
100.0 450.0 7.0 9.147676375112406e-41
100.0 460.0 4.0 9.147676375112406e-41
100.0 470.0 3.0 9.147676375112406e-41
100.0 480.0 2.0 9.147676375112406e-41
100.0 490.0 3.0 9.147676375112406e-41
110.0 500.0 4.0 9.147676375112406e-41
110.0 490.0 3.0 9.147676375112406e-41
110.0 480.0 3.0 9.147676375112406e-41
110.0 470.0 4.0 9.147676375112406e-41
110.0 460.0 4.0 9.147676375112406e-41
110.0 450.0 7.0 9.147676375112406e-41
110.0 440.0 8.0 9.147676375112406e-41
110.0 430.0 8.0 9.147676375112406e-41
110.0 420.0 10.0 9.147676375112406e-41
110.0 410.0 11.0 9.147676375112406e-41
110.0 400.0 11.0 9.147676375112406e-41
110.0 390.0 10.0 9.147676375112406e-41
110.0 380.0 12.0 9.147676375112406e-41
110.0 370.0 12.0 9.147676375112406e-41
110.0 360.0 12.0 9.147676375112406e-41
110.0 350.0 12.0 9.147676375112406e-41
110.0 340.0 12.0 9.147676375112406e-41
110.0 330.0 12.0 9.147676375112406e-41
110.0 320.0 12.0 9.147676375112406e-41
110.0 310.0 11.0 9.147676375112406e-41
110.0 300.0 11.0 9.147676375112406e-41
110.0 290.0 10.0 9.147676375112406e-41
110.0 280.0 7.0 9.147676375112406e-41
110.0 270.0 7.0 9.147676375112406e-41
110.0 260.0 3.0 9.147676375112406e-41
110.0 250.0 2.0 9.147676375112406e-41
110.0 240.0 3.0 9.147676375112406e-41
110.0 210.0 2.0 9.147676375112406e-41
110.0 200.0 2.0 9.147676375112406e-41
110.0 190.0 2.0 9.147676375112406e-41
110.0 180.0 2.0 9.147676375112406e-41
110.0 170.0 2.0 9.147676375112406e-41
110.0 150.0 3.0 9.147676375112406e-41
120.0 250.0 2.0 9.147676375112406e-41
120.0 260.0 2.0 9.147676375112406e-41
120.0 270.0 5.0 9.147676375112406e-41
120.0 280.0 9.0 9.147676375112406e-41
120.0 290.0 11.0 9.147676375112406e-41
120.0 300.0 11.0 9.147676375112406e-41
120.0 310.0 12.0 9.147676375112406e-41
120.0 320.0 14.0 9.147676375112406e-41
120.0 330.0 14.0 9.147676375112406e-41
120.0 340.0 13.0 9.147676375112406e-41
120.0 350.0 14.0 9.147676375112406e-41
120.0 360.0 13.0 9.147676375112406e-41
120.0 370.0 13.0 9.147676375112406e-41
120.0 380.0 13.0 9.147676375112406e-41
120.0 390.0 12.0 9.147676375112406e-41
120.0 400.0 11.0 9.147676375112406e-41
120.0 410.0 9.0 9.147676375112406e-41
120.0 420.0 7.0 9.147676375112406e-41
120.0 430.0 5.0 9.147676375112406e-41
120.0 440.0 4.0 9.147676375112406e-41
120.0 450.0 4.0 9.147676375112406e-41
120.0 460.0 2.0 9.147676375112406e-41
120.0 470.0 2.0 9.147676375112406e-41
120.0 480.0 2.0 9.147676375112406e-41
120.0 490.0 3.0 9.147676375112406e-41
130.0 490.0 2.0 9.147676375112406e-41
130.0 480.0 3.0 9.147676375112406e-41
130.0 470.0 4.0 9.147676375112406e-41
130.0 460.0 4.0 9.147676375112406e-41
130.0 450.0 7.0 9.147676375112406e-41
130.0 440.0 9.0 9.147676375112406e-41
130.0 430.0 10.0 9.147676375112406e-41
130.0 420.0 11.0 9.147676375112406e-41
130.0 410.0 10.0 9.147676375112406e-41
130.0 400.0 16.0 9.147676375112406e-41
130.0 390.0 17.0 9.147676375112406e-41
130.0 380.0 16.0 9.147676375112406e-41
130.0 370.0 16.0 9.147676375112406e-41
130.0 360.0 16.0 9.147676375112406e-41
130.0 350.0 17.0 9.147676375112406e-41
130.0 340.0 17.0 9.147676375112406e-41
130.0 330.0 17.0 9.147676375112406e-41
130.0 320.0 16.0 9.147676375112406e-41
130.0 310.0 16.0 9.147676375112406e-41
130.0 300.0 14.0 9.147676375112406e-41
130.0 290.0 13.0 9.147676375112406e-41
130.0 280.0 10.0 9.147676375112406e-41
130.0 270.0 7.0 9.147676375112406e-41
130.0 260.0 3.0 9.147676375112406e-41
130.0 250.0 2.0 9.147676375112406e-41
130.0 240.0 2.0 9.147676375112406e-41
130.0 130.0 2.0 9.147676375112406e-41
140.0 250.0 5.0 9.147676375112406e-41
140.0 260.0 13.0 9.147676375112406e-41
140.0 270.0 19.0 9.147676375112406e-41
140.0 280.0 21.0 9.147676375112406e-41
140.0 290.0 24.0 9.147676375112406e-41
140.0 300.0 24.0 9.147676375112406e-41
140.0 310.0 26.0 9.147676375112406e-41
140.0 320.0 26.0 9.147676375112406e-41
140.0 330.0 25.0 9.147676375112406e-41
140.0 340.0 26.0 9.147676375112406e-41
140.0 350.0 26.0 9.147676375112406e-41
140.0 360.0 25.0 9.147676375112406e-41
140.0 370.0 24.0 9.147676375112406e-41
140.0 380.0 22.0 9.147676375112406e-41
140.0 390.0 21.0 9.147676375112406e-41
140.0 400.0 19.0 9.147676375112406e-41
140.0 410.0 14.0 9.147676375112406e-41
140.0 420.0 8.0 9.147676375112406e-41
140.0 430.0 4.0 9.147676375112406e-41
140.0 440.0 3.0 9.147676375112406e-41
140.0 450.0 2.0 9.147676375112406e-41
150.0 500.0 2.0 9.147676375112406e-41
150.0 470.0 2.0 9.147676375112406e-41
150.0 460.0 2.0 9.147676375112406e-41
150.0 450.0 5.0 9.147676375112406e-41
150.0 440.0 8.0 9.147676375112406e-41
150.0 430.0 11.0 9.147676375112406e-41
150.0 420.0 17.0 9.147676375112406e-41
150.0 410.0 22.0 9.147676375112406e-41
150.0 400.0 25.0 9.147676375112406e-41
150.0 390.0 27.0 9.147676375112406e-41
150.0 380.0 29.0 9.147676375112406e-41
150.0 370.0 30.0 9.147676375112406e-41
150.0 360.0 30.0 9.147676375112406e-41
150.0 350.0 30.0 9.147676375112406e-41
150.0 340.0 31.0 9.147676375112406e-41
150.0 330.0 31.0 9.147676375112406e-41
150.0 320.0 30.0 9.147676375112406e-41
150.0 310.0 31.0 9.147676375112406e-41
150.0 300.0 30.0 9.147676375112406e-41
150.0 290.0 29.0 9.147676375112406e-41
150.0 280.0 28.0 9.147676375112406e-41
150.0 270.0 25.0 9.147676375112406e-41
150.0 260.0 15.0 9.147676375112406e-41
150.0 250.0 7.0 9.147676375112406e-41
150.0 240.0 7.0 9.147676375112406e-41
150.0 90.0 2.0 9.147676375112406e-41
160.0 230.0 5.0 9.147676375112406e-41
160.0 240.0 9.0 9.147676375112406e-41
160.0 250.0 21.0 9.147676375112406e-41
160.0 260.0 29.0 9.147676375112406e-41
160.0 270.0 32.0 9.147676375112406e-41
160.0 280.0 35.0 9.147676375112406e-41
160.0 290.0 33.0 9.147676375112406e-41
160.0 300.0 33.0 9.147676375112406e-41
160.0 310.0 35.0 9.147676375112406e-41
160.0 320.0 33.0 9.147676375112406e-41
160.0 330.0 34.0 9.147676375112406e-41
160.0 340.0 34.0 9.147676375112406e-41
160.0 350.0 35.0 9.147676375112406e-41
160.0 360.0 34.0 9.147676375112406e-41
160.0 370.0 34.0 9.147676375112406e-41
160.0 380.0 33.0 9.147676375112406e-41
160.0 390.0 26.0 9.147676375112406e-41
160.0 400.0 20.0 9.147676375112406e-41
160.0 410.0 14.0 9.147676375112406e-41
160.0 420.0 9.0 9.147676375112406e-41
160.0 430.0 5.0 9.147676375112406e-41
160.0 440.0 2.0 9.147676375112406e-41
160.0 450.0 2.0 9.147676375112406e-41
170.0 500.0 2.0 9.147676375112406e-41
170.0 490.0 2.0 9.147676375112406e-41
170.0 480.0 2.0 9.147676375112406e-41
170.0 470.0 2.0 9.147676375112406e-41
170.0 460.0 4.0 9.147676375112406e-41
170.0 450.0 4.0 9.147676375112406e-41
170.0 440.0 9.0 9.147676375112406e-41
170.0 430.0 13.0 9.147676375112406e-41
170.0 420.0 19.0 9.147676375112406e-41
170.0 410.0 21.0 9.147676375112406e-41
170.0 400.0 27.0 9.147676375112406e-41
170.0 390.0 31.0 9.147676375112406e-41
170.0 380.0 33.0 9.147676375112406e-41
170.0 370.0 35.0 9.147676375112406e-41
170.0 360.0 36.0 9.147676375112406e-41
170.0 350.0 37.0 9.147676375112406e-41
170.0 340.0 35.0 9.147676375112406e-41
170.0 330.0 36.0 9.147676375112406e-41
170.0 320.0 36.0 9.147676375112406e-41
170.0 310.0 35.0 9.147676375112406e-41
170.0 300.0 35.0 9.147676375112406e-41
170.0 290.0 36.0 9.147676375112406e-41
170.0 280.0 36.0 9.147676375112406e-41
170.0 270.0 35.0 9.147676375112406e-41
170.0 260.0 31.0 9.147676375112406e-41
170.0 250.0 25.0 9.147676375112406e-41
170.0 240.0 12.0 9.147676375112406e-41
170.0 230.0 4.0 9.147676375112406e-41
180.0 230.0 2.0 9.147676375112406e-41
180.0 240.0 4.0 9.147676375112406e-41
180.0 250.0 8.0 9.147676375112406e-41
180.0 260.0 17.0 9.147676375112406e-41
180.0 270.0 21.0 9.147676375112406e-41
180.0 280.0 25.0 9.147676375112406e-41
180.0 290.0 26.0 9.147676375112406e-41
180.0 300.0 27.0 9.147676375112406e-41
180.0 310.0 28.0 9.147676375112406e-41
180.0 320.0 28.0 9.147676375112406e-41
180.0 330.0 27.0 9.147676375112406e-41
180.0 340.0 26.0 9.147676375112406e-41
180.0 350.0 27.0 9.147676375112406e-41
180.0 360.0 27.0 9.147676375112406e-41
180.0 370.0 26.0 9.147676375112406e-41
180.0 380.0 24.0 9.147676375112406e-41
180.0 390.0 20.0 9.147676375112406e-41
180.0 400.0 18.0 9.147676375112406e-41
180.0 410.0 10.0 9.147676375112406e-41
180.0 420.0 9.0 9.147676375112406e-41
180.0 430.0 5.0 9.147676375112406e-41
180.0 440.0 3.0 9.147676375112406e-41
180.0 450.0 2.0 9.147676375112406e-41
190.0 500.0 2.0 9.147676375112406e-41
190.0 490.0 3.0 9.147676375112406e-41
190.0 480.0 3.0 9.147676375112406e-41
190.0 470.0 5.0 9.147676375112406e-41
190.0 460.0 5.0 9.147676375112406e-41
190.0 450.0 7.0 9.147676375112406e-41
190.0 440.0 9.0 9.147676375112406e-41
190.0 430.0 11.0 9.147676375112406e-41
190.0 420.0 13.0 9.147676375112406e-41
190.0 410.0 16.0 9.147676375112406e-41
190.0 400.0 19.0 9.147676375112406e-41
190.0 390.0 22.0 9.147676375112406e-41
190.0 380.0 24.0 9.147676375112406e-41
190.0 370.0 24.0 9.147676375112406e-41
190.0 360.0 25.0 9.147676375112406e-41
190.0 350.0 26.0 9.147676375112406e-41
190.0 340.0 26.0 9.147676375112406e-41
190.0 330.0 26.0 9.147676375112406e-41
190.0 320.0 26.0 9.147676375112406e-41
190.0 310.0 26.0 9.147676375112406e-41
190.0 300.0 26.0 9.147676375112406e-41
190.0 290.0 26.0 9.147676375112406e-41
190.0 280.0 21.0 9.147676375112406e-41
190.0 270.0 16.0 9.147676375112406e-41
190.0 260.0 8.0 9.147676375112406e-41
190.0 250.0 4.0 9.147676375112406e-41
190.0 230.0 2.0 9.147676375112406e-41
190.0 130.0 2.0 9.147676375112406e-41
200.0 250.0 2.0 9.147676375112406e-41
200.0 260.0 4.0 9.147676375112406e-41
200.0 270.0 4.0 9.147676375112406e-41
200.0 280.0 8.0 9.147676375112406e-41
200.0 290.0 9.0 9.147676375112406e-41
200.0 300.0 10.0 9.147676375112406e-41
200.0 310.0 10.0 9.147676375112406e-41
200.0 320.0 10.0 9.147676375112406e-41
200.0 330.0 10.0 9.147676375112406e-41
200.0 340.0 10.0 9.147676375112406e-41
200.0 350.0 9.0 9.147676375112406e-41
200.0 360.0 9.0 9.147676375112406e-41
200.0 370.0 8.0 9.147676375112406e-41
200.0 380.0 8.0 9.147676375112406e-41
200.0 390.0 7.0 9.147676375112406e-41
200.0 400.0 5.0 9.147676375112406e-41
200.0 410.0 5.0 9.147676375112406e-41
200.0 420.0 4.0 9.147676375112406e-41
200.0 430.0 4.0 9.147676375112406e-41
200.0 440.0 3.0 9.147676375112406e-41
200.0 450.0 2.0 9.147676375112406e-41
200.0 460.0 2.0 9.147676375112406e-41
200.0 480.0 2.0 9.147676375112406e-41
200.0 490.0 3.0 9.147676375112406e-41
210.0 500.0 2.0 9.147676375112406e-41
210.0 490.0 3.0 9.147676375112406e-41
210.0 480.0 2.0 9.147676375112406e-41
210.0 470.0 2.0 9.147676375112406e-41
210.0 460.0 3.0 9.147676375112406e-41
210.0 450.0 2.0 9.147676375112406e-41
210.0 440.0 2.0 9.147676375112406e-41
210.0 430.0 2.0 9.147676375112406e-41
210.0 420.0 3.0 9.147676375112406e-41
210.0 410.0 3.0 9.147676375112406e-41
210.0 400.0 4.0 9.147676375112406e-41
210.0 390.0 3.0 9.147676375112406e-41
210.0 380.0 4.0 9.147676375112406e-41
210.0 370.0 3.0 9.147676375112406e-41
210.0 360.0 4.0 9.147676375112406e-41
210.0 350.0 4.0 9.147676375112406e-41
210.0 340.0 3.0 9.147676375112406e-41
210.0 330.0 4.0 9.147676375112406e-41
210.0 320.0 3.0 9.147676375112406e-41
210.0 310.0 4.0 9.147676375112406e-41
210.0 300.0 3.0 9.147676375112406e-41
210.0 290.0 3.0 9.147676375112406e-41
210.0 280.0 3.0 9.147676375112406e-41
210.0 270.0 2.0 9.147676375112406e-41
210.0 250.0 2.0 9.147676375112406e-41
210.0 230.0 2.0 9.147676375112406e-41
210.0 160.0 2.0 9.147676375112406e-41
210.0 110.0 2.0 9.147676375112406e-41
210.0 90.0 2.0 9.147676375112406e-41
220.0 440.0 2.0 9.147676375112406e-41
220.0 450.0 2.0 9.147676375112406e-41
220.0 460.0 3.0 9.147676375112406e-41
220.0 470.0 2.0 9.147676375112406e-41
220.0 480.0 4.0 9.147676375112406e-41
220.0 490.0 3.0 9.147676375112406e-41
220.0 500.0 3.0 9.147676375112406e-41
230.0 500.0 3.0 9.147676375112406e-41
230.0 490.0 3.0 9.147676375112406e-41
230.0 480.0 3.0 9.147676375112406e-41
230.0 470.0 3.0 9.147676375112406e-41
230.0 460.0 3.0 9.147676375112406e-41
230.0 450.0 2.0 9.147676375112406e-41
230.0 440.0 3.0 9.147676375112406e-41
230.0 430.0 2.0 9.147676375112406e-41
230.0 420.0 2.0 9.147676375112406e-41
230.0 410.0 2.0 9.147676375112406e-41
230.0 390.0 2.0 9.147676375112406e-41
230.0 380.0 2.0 9.147676375112406e-41
230.0 330.0 2.0 9.147676375112406e-41
230.0 320.0 2.0 9.147676375112406e-41
230.0 310.0 2.0 9.147676375112406e-41
230.0 290.0 2.0 9.147676375112406e-41
230.0 280.0 2.0 9.147676375112406e-41
230.0 270.0 2.0 9.147676375112406e-41
230.0 250.0 2.0 9.147676375112406e-41
230.0 240.0 2.0 9.147676375112406e-41
230.0 230.0 2.0 9.147676375112406e-41
230.0 220.0 2.0 9.147676375112406e-41
230.0 210.0 2.0 9.147676375112406e-41
230.0 170.0 2.0 9.147676375112406e-41
230.0 150.0 2.0 9.147676375112406e-41
230.0 120.0 2.0 9.147676375112406e-41
230.0 90.0 2.0 9.147676375112406e-41
230.0 80.0 2.0 9.147676375112406e-41
230.0 70.0 2.0 9.147676375112406e-41
230.0 60.0 2.0 9.147676375112406e-41
240.0 300.0 2.0 9.147676375112406e-41
240.0 400.0 2.0 9.147676375112406e-41
240.0 410.0 2.0 9.147676375112406e-41
240.0 420.0 2.0 9.147676375112406e-41
240.0 430.0 2.0 9.147676375112406e-41
240.0 440.0 3.0 9.147676375112406e-41
240.0 450.0 3.0 9.147676375112406e-41
240.0 460.0 2.0 9.147676375112406e-41
240.0 470.0 3.0 9.147676375112406e-41
240.0 480.0 3.0 9.147676375112406e-41
240.0 490.0 2.0 9.147676375112406e-41
240.0 500.0 2.0 9.147676375112406e-41
250.0 500.0 3.0 9.147676375112406e-41
250.0 490.0 3.0 9.147676375112406e-41
250.0 480.0 4.0 9.147676375112406e-41
250.0 470.0 3.0 9.147676375112406e-41
250.0 460.0 3.0 9.147676375112406e-41
250.0 450.0 3.0 9.147676375112406e-41
250.0 440.0 3.0 9.147676375112406e-41
250.0 430.0 3.0 9.147676375112406e-41
250.0 420.0 2.0 9.147676375112406e-41
250.0 410.0 3.0 9.147676375112406e-41
250.0 400.0 2.0 9.147676375112406e-41
250.0 390.0 3.0 9.147676375112406e-41
250.0 380.0 2.0 9.147676375112406e-41
250.0 350.0 2.0 9.147676375112406e-41
250.0 340.0 2.0 9.147676375112406e-41
250.0 320.0 3.0 9.147676375112406e-41
250.0 310.0 2.0 9.147676375112406e-41
250.0 300.0 2.0 9.147676375112406e-41
250.0 280.0 2.0 9.147676375112406e-41
250.0 270.0 2.0 9.147676375112406e-41
250.0 260.0 2.0 9.147676375112406e-41
250.0 250.0 2.0 9.147676375112406e-41
250.0 240.0 2.0 9.147676375112406e-41
250.0 230.0 2.0 9.147676375112406e-41
250.0 220.0 2.0 9.147676375112406e-41
250.0 210.0 2.0 9.147676375112406e-41
250.0 200.0 2.0 9.147676375112406e-41
250.0 190.0 2.0 9.147676375112406e-41
250.0 180.0 3.0 9.147676375112406e-41
250.0 170.0 3.0 9.147676375112406e-41
250.0 160.0 3.0 9.147676375112406e-41
250.0 150.0 3.0 9.147676375112406e-41
250.0 140.0 3.0 9.147676375112406e-41
250.0 130.0 3.0 9.147676375112406e-41
250.0 120.0 3.0 9.147676375112406e-41
250.0 110.0 3.0 9.147676375112406e-41
250.0 100.0 2.0 9.147676375112406e-41
250.0 90.0 2.0 9.147676375112406e-41
250.0 80.0 2.0 9.147676375112406e-41
250.0 70.0 2.0 9.147676375112406e-41
250.0 60.0 2.0 9.147676375112406e-41
260.0 360.0 3.0 9.147676375112406e-41
260.0 370.0 3.0 9.147676375112406e-41
260.0 380.0 2.0 9.147676375112406e-41
260.0 390.0 2.0 9.147676375112406e-41
260.0 400.0 2.0 9.147676375112406e-41
260.0 410.0 3.0 9.147676375112406e-41
260.0 420.0 4.0 9.147676375112406e-41
260.0 430.0 4.0 9.147676375112406e-41
260.0 440.0 4.0 9.147676375112406e-41
260.0 450.0 4.0 9.147676375112406e-41
260.0 460.0 4.0 9.147676375112406e-41
260.0 470.0 4.0 9.147676375112406e-41
260.0 480.0 4.0 9.147676375112406e-41
260.0 490.0 3.0 9.147676375112406e-41
260.0 500.0 4.0 9.147676375112406e-41
270.0 500.0 5.0 9.147676375112406e-41
270.0 490.0 5.0 9.147676375112406e-41
270.0 480.0 5.0 9.147676375112406e-41
270.0 470.0 4.0 9.147676375112406e-41
270.0 460.0 5.0 9.147676375112406e-41
270.0 450.0 5.0 9.147676375112406e-41
270.0 440.0 5.0 9.147676375112406e-41
270.0 430.0 5.0 9.147676375112406e-41
270.0 420.0 3.0 9.147676375112406e-41
270.0 410.0 5.0 9.147676375112406e-41
270.0 400.0 5.0 9.147676375112406e-41
270.0 390.0 4.0 9.147676375112406e-41
270.0 380.0 4.0 9.147676375112406e-41
270.0 370.0 4.0 9.147676375112406e-41
270.0 360.0 3.0 9.147676375112406e-41
270.0 350.0 4.0 9.147676375112406e-41
270.0 340.0 2.0 9.147676375112406e-41
270.0 330.0 2.0 9.147676375112406e-41
270.0 320.0 3.0 9.147676375112406e-41
270.0 310.0 2.0 9.147676375112406e-41
270.0 300.0 2.0 9.147676375112406e-41
270.0 290.0 2.0 9.147676375112406e-41
270.0 280.0 2.0 9.147676375112406e-41
270.0 260.0 3.0 9.147676375112406e-41
270.0 250.0 2.0 9.147676375112406e-41
270.0 240.0 3.0 9.147676375112406e-41
270.0 230.0 3.0 9.147676375112406e-41
270.0 220.0 2.0 9.147676375112406e-41
270.0 210.0 2.0 9.147676375112406e-41
270.0 200.0 3.0 9.147676375112406e-41
270.0 190.0 2.0 9.147676375112406e-41
270.0 180.0 2.0 9.147676375112406e-41
270.0 170.0 3.0 9.147676375112406e-41
270.0 160.0 3.0 9.147676375112406e-41
270.0 150.0 2.0 9.147676375112406e-41
270.0 140.0 3.0 9.147676375112406e-41
270.0 130.0 2.0 9.147676375112406e-41
270.0 120.0 3.0 9.147676375112406e-41
270.0 110.0 2.0 9.147676375112406e-41
280.0 300.0 2.0 9.147676375112406e-41
280.0 310.0 3.0 9.147676375112406e-41
280.0 330.0 3.0 9.147676375112406e-41
280.0 340.0 4.0 9.147676375112406e-41
280.0 350.0 2.0 9.147676375112406e-41
280.0 360.0 3.0 9.147676375112406e-41
280.0 370.0 2.0 9.147676375112406e-41
280.0 380.0 4.0 9.147676375112406e-41
280.0 390.0 3.0 9.147676375112406e-41
280.0 400.0 4.0 9.147676375112406e-41
280.0 410.0 3.0 9.147676375112406e-41
280.0 420.0 4.0 9.147676375112406e-41
280.0 430.0 4.0 9.147676375112406e-41
280.0 440.0 4.0 9.147676375112406e-41
280.0 450.0 5.0 9.147676375112406e-41
280.0 460.0 4.0 9.147676375112406e-41
280.0 470.0 4.0 9.147676375112406e-41
280.0 480.0 4.0 9.147676375112406e-41
280.0 490.0 4.0 9.147676375112406e-41
280.0 500.0 4.0 9.147676375112406e-41
290.0 500.0 4.0 9.147676375112406e-41
290.0 490.0 5.0 9.147676375112406e-41
290.0 480.0 4.0 9.147676375112406e-41
290.0 470.0 4.0 9.147676375112406e-41
290.0 460.0 4.0 9.147676375112406e-41
290.0 450.0 5.0 9.147676375112406e-41
290.0 440.0 5.0 9.147676375112406e-41
290.0 430.0 5.0 9.147676375112406e-41
290.0 420.0 5.0 9.147676375112406e-41
290.0 410.0 4.0 9.147676375112406e-41
290.0 400.0 5.0 9.147676375112406e-41
290.0 390.0 4.0 9.147676375112406e-41
290.0 380.0 3.0 9.147676375112406e-41
290.0 370.0 4.0 9.147676375112406e-41
290.0 360.0 5.0 9.147676375112406e-41
290.0 350.0 3.0 9.147676375112406e-41
290.0 340.0 4.0 9.147676375112406e-41
290.0 330.0 2.0 9.147676375112406e-41
290.0 320.0 3.0 9.147676375112406e-41
290.0 310.0 2.0 9.147676375112406e-41
290.0 300.0 2.0 9.147676375112406e-41
