# .PCD v.7 - Point Cloud Data file format
VERSION .7
FIELDS x y z rgb
SIZE 4 4 4 4
TYPE F F F F
COUNT 1 1 1 1
WIDTH 459
HEIGHT 1
VIEWPOINT 0 0 0 1 0 0 0
POINTS 459
DATA ascii
0.0 240.0 2.0 9.147676375112406e-41
0.0 250.0 2.0 9.147676375112406e-41
0.0 270.0 2.0 9.147676375112406e-41
0.0 290.0 2.0 9.147676375112406e-41
0.0 300.0 2.0 9.147676375112406e-41
0.0 310.0 2.0 9.147676375112406e-41
0.0 330.0 3.0 9.147676375112406e-41
0.0 340.0 2.0 9.147676375112406e-41
0.0 360.0 3.0 9.147676375112406e-41
0.0 370.0 2.0 9.147676375112406e-41
0.0 380.0 2.0 9.147676375112406e-41
0.0 390.0 2.0 9.147676375112406e-41
0.0 400.0 2.0 9.147676375112406e-41
0.0 410.0 3.0 9.147676375112406e-41
0.0 420.0 3.0 9.147676375112406e-41
0.0 430.0 3.0 9.147676375112406e-41
0.0 440.0 3.0 9.147676375112406e-41
0.0 450.0 4.0 9.147676375112406e-41
0.0 460.0 2.0 9.147676375112406e-41
0.0 470.0 2.0 9.147676375112406e-41
0.0 480.0 2.0 9.147676375112406e-41
0.0 490.0 2.0 9.147676375112406e-41
0.0 500.0 3.0 9.147676375112406e-41
10.0 500.0 2.0 9.147676375112406e-41
10.0 490.0 2.0 9.147676375112406e-41
10.0 480.0 2.0 9.147676375112406e-41
10.0 470.0 2.0 9.147676375112406e-41
10.0 460.0 3.0 9.147676375112406e-41
10.0 450.0 3.0 9.147676375112406e-41
10.0 440.0 2.0 9.147676375112406e-41
10.0 430.0 2.0 9.147676375112406e-41
10.0 420.0 2.0 9.147676375112406e-41
10.0 410.0 2.0 9.147676375112406e-41
10.0 400.0 2.0 9.147676375112406e-41
10.0 390.0 2.0 9.147676375112406e-41
10.0 380.0 2.0 9.147676375112406e-41
10.0 360.0 2.0 9.147676375112406e-41
10.0 350.0 2.0 9.147676375112406e-41
10.0 340.0 2.0 9.147676375112406e-41
10.0 330.0 2.0 9.147676375112406e-41
10.0 320.0 2.0 9.147676375112406e-41
10.0 300.0 2.0 9.147676375112406e-41
10.0 290.0 2.0 9.147676375112406e-41
10.0 280.0 3.0 9.147676375112406e-41
10.0 190.0 2.0 9.147676375112406e-41
10.0 180.0 2.0 9.147676375112406e-41
10.0 150.0 2.0 9.147676375112406e-41
10.0 140.0 2.0 9.147676375112406e-41
10.0 130.0 2.0 9.147676375112406e-41
10.0 120.0 2.0 9.147676375112406e-41
10.0 100.0 2.0 9.147676375112406e-41
10.0 90.0 2.0 9.147676375112406e-41
10.0 80.0 2.0 9.147676375112406e-41
20.0 440.0 2.0 9.147676375112406e-41
20.0 490.0 2.0 9.147676375112406e-41
20.0 500.0 2.0 9.147676375112406e-41
50.0 320.0 3.0 9.147676375112406e-41
50.0 310.0 4.0 9.147676375112406e-41
50.0 300.0 5.0 9.147676375112406e-41
50.0 290.0 6.0 9.147676375112406e-41
50.0 280.0 6.0 9.147676375112406e-41
50.0 270.0 6.0 9.147676375112406e-41
50.0 260.0 5.0 9.147676375112406e-41
50.0 250.0 5.0 9.147676375112406e-41
50.0 240.0 4.0 9.147676375112406e-41
50.0 230.0 3.0 9.147676375112406e-41
60.0 220.0 6.0 9.147676375112406e-41
60.0 230.0 9.0 9.147676375112406e-41
60.0 240.0 10.0 9.147676375112406e-41
60.0 250.0 11.0 9.147676375112406e-41
60.0 260.0 11.0 9.147676375112406e-41
60.0 270.0 11.0 9.147676375112406e-41
60.0 280.0 11.0 9.147676375112406e-41
60.0 290.0 11.0 9.147676375112406e-41
60.0 300.0 11.0 9.147676375112406e-41
60.0 310.0 11.0 9.147676375112406e-41
60.0 320.0 10.0 9.147676375112406e-41
60.0 330.0 6.0 9.147676375112406e-41
60.0 340.0 4.0 9.147676375112406e-41
70.0 330.0 5.0 9.147676375112406e-41
70.0 320.0 11.0 9.147676375112406e-41
70.0 310.0 14.0 9.147676375112406e-41
70.0 300.0 14.0 9.147676375112406e-41
70.0 290.0 15.0 9.147676375112406e-41
70.0 280.0 14.0 9.147676375112406e-41
70.0 270.0 15.0 9.147676375112406e-41
70.0 260.0 15.0 9.147676375112406e-41
70.0 250.0 15.0 9.147676375112406e-41
70.0 240.0 14.0 9.147676375112406e-41
70.0 230.0 12.0 9.147676375112406e-41
70.0 220.0 10.0 9.147676375112406e-41
70.0 210.0 4.0 9.147676375112406e-41
80.0 200.0 3.0 9.147676375112406e-41
80.0 210.0 7.0 9.147676375112406e-41
80.0 220.0 13.0 9.147676375112406e-41
80.0 230.0 15.0 9.147676375112406e-41
80.0 240.0 16.0 9.147676375112406e-41
80.0 250.0 18.0 9.147676375112406e-41
80.0 260.0 17.0 9.147676375112406e-41
80.0 270.0 17.0 9.147676375112406e-41
80.0 280.0 18.0 9.147676375112406e-41
80.0 290.0 16.0 9.147676375112406e-41
80.0 300.0 15.0 9.147676375112406e-41
80.0 310.0 14.0 9.147676375112406e-41
80.0 320.0 12.0 9.147676375112406e-41
80.0 330.0 6.0 9.147676375112406e-41
90.0 330.0 4.0 9.147676375112406e-41
90.0 320.0 6.0 9.147676375112406e-41
90.0 310.0 15.0 9.147676375112406e-41
90.0 300.0 17.0 9.147676375112406e-41
90.0 290.0 21.0 9.147676375112406e-41
90.0 280.0 21.0 9.147676375112406e-41
90.0 270.0 22.0 9.147676375112406e-41
90.0 260.0 22.0 9.147676375112406e-41
90.0 250.0 22.0 9.147676375112406e-41
90.0 240.0 22.0 9.147676375112406e-41
90.0 230.0 19.0 9.147676375112406e-41
90.0 220.0 16.0 9.147676375112406e-41
90.0 210.0 11.0 9.147676375112406e-41
90.0 200.0 7.0 9.147676375112406e-41
100.0 200.0 10.0 9.147676375112406e-41
100.0 210.0 16.0 9.147676375112406e-41
100.0 220.0 21.0 9.147676375112406e-41
100.0 230.0 22.0 9.147676375112406e-41
100.0 240.0 23.0 9.147676375112406e-41
100.0 250.0 23.0 9.147676375112406e-41
100.0 260.0 23.0 9.147676375112406e-41
100.0 270.0 22.0 9.147676375112406e-41
100.0 280.0 23.0 9.147676375112406e-41
100.0 290.0 19.0 9.147676375112406e-41
100.0 300.0 19.0 9.147676375112406e-41
100.0 310.0 14.0 9.147676375112406e-41
100.0 320.0 7.0 9.147676375112406e-41
100.0 330.0 4.0 9.147676375112406e-41
110.0 330.0 5.0 9.147676375112406e-41
110.0 320.0 5.0 9.147676375112406e-41
110.0 310.0 10.0 9.147676375112406e-41
110.0 300.0 17.0 9.147676375112406e-41
110.0 290.0 22.0 9.147676375112406e-41
110.0 280.0 23.0 9.147676375112406e-41
110.0 270.0 24.0 9.147676375112406e-41
110.0 260.0 23.0 9.147676375112406e-41
110.0 250.0 23.0 9.147676375112406e-41
110.0 240.0 24.0 9.147676375112406e-41
110.0 230.0 24.0 9.147676375112406e-41
110.0 220.0 21.0 9.147676375112406e-41
110.0 210.0 16.0 9.147676375112406e-41
110.0 200.0 15.0 9.147676375112406e-41
110.0 190.0 4.0 9.147676375112406e-41
120.0 190.0 7.0 9.147676375112406e-41
120.0 200.0 11.0 9.147676375112406e-41
120.0 210.0 17.0 9.147676375112406e-41
120.0 220.0 17.0 9.147676375112406e-41
120.0 230.0 19.0 9.147676375112406e-41
120.0 240.0 19.0 9.147676375112406e-41
120.0 250.0 19.0 9.147676375112406e-41
120.0 260.0 21.0 9.147676375112406e-41
120.0 270.0 19.0 9.147676375112406e-41
120.0 280.0 21.0 9.147676375112406e-41
120.0 290.0 18.0 9.147676375112406e-41
120.0 300.0 18.0 9.147676375112406e-41
120.0 310.0 13.0 9.147676375112406e-41
120.0 320.0 7.0 9.147676375112406e-41
120.0 330.0 5.0 9.147676375112406e-41
130.0 330.0 4.0 9.147676375112406e-41
130.0 320.0 4.0 9.147676375112406e-41
130.0 310.0 10.0 9.147676375112406e-41
130.0 300.0 14.0 9.147676375112406e-41
130.0 290.0 17.0 9.147676375112406e-41
130.0 280.0 18.0 9.147676375112406e-41
130.0 270.0 18.0 9.147676375112406e-41
130.0 260.0 18.0 9.147676375112406e-41
130.0 250.0 18.0 9.147676375112406e-41
130.0 240.0 18.0 9.147676375112406e-41
130.0 230.0 18.0 9.147676375112406e-41
130.0 220.0 18.0 9.147676375112406e-41
130.0 210.0 16.0 9.147676375112406e-41
130.0 200.0 12.0 9.147676375112406e-41
130.0 190.0 5.0 9.147676375112406e-41
130.0 180.0 2.0 9.147676375112406e-41
140.0 200.0 4.0 9.147676375112406e-41
140.0 210.0 10.0 9.147676375112406e-41
140.0 220.0 11.0 9.147676375112406e-41
140.0 230.0 13.0 9.147676375112406e-41
140.0 240.0 13.0 9.147676375112406e-41
140.0 250.0 13.0 9.147676375112406e-41
140.0 260.0 14.0 9.147676375112406e-41
140.0 270.0 14.0 9.147676375112406e-41
140.0 280.0 13.0 9.147676375112406e-41
140.0 290.0 13.0 9.147676375112406e-41
140.0 300.0 11.0 9.147676375112406e-41
140.0 310.0 6.0 9.147676375112406e-41
140.0 320.0 4.0 9.147676375112406e-41
150.0 320.0 2.0 9.147676375112406e-41
150.0 310.0 4.0 9.147676375112406e-41
150.0 300.0 8.0 9.147676375112406e-41
150.0 290.0 9.0 9.147676375112406e-41
150.0 280.0 11.0 9.147676375112406e-41
150.0 270.0 10.0 9.147676375112406e-41
150.0 260.0 10.0 9.147676375112406e-41
150.0 250.0 10.0 9.147676375112406e-41
150.0 240.0 9.0 9.147676375112406e-41
150.0 230.0 9.0 9.147676375112406e-41
150.0 220.0 9.0 9.147676375112406e-41
150.0 210.0 8.0 9.147676375112406e-41
150.0 200.0 4.0 9.147676375112406e-41
160.0 220.0 2.0 9.147676375112406e-41
160.0 230.0 4.0 9.147676375112406e-41
160.0 240.0 4.0 9.147676375112406e-41
160.0 250.0 7.0 9.147676375112406e-41
160.0 260.0 6.0 9.147676375112406e-41
160.0 270.0 6.0 9.147676375112406e-41
160.0 280.0 6.0 9.147676375112406e-41
160.0 290.0 4.0 9.147676375112406e-41
160.0 300.0 3.0 9.147676375112406e-41
160.0 310.0 3.0 9.147676375112406e-41
170.0 400.0 2.0 9.147676375112406e-41
170.0 390.0 2.0 9.147676375112406e-41
170.0 320.0 2.0 9.147676375112406e-41
170.0 310.0 4.0 9.147676375112406e-41
170.0 300.0 4.0 9.147676375112406e-41
170.0 290.0 6.0 9.147676375112406e-41
170.0 280.0 4.0 9.147676375112406e-41
170.0 270.0 3.0 9.147676375112406e-41
170.0 260.0 4.0 9.147676375112406e-41
170.0 250.0 6.0 9.147676375112406e-41
170.0 240.0 3.0 9.147676375112406e-41
170.0 230.0 3.0 9.147676375112406e-41
170.0 220.0 2.0 9.147676375112406e-41
170.0 210.0 2.0 9.147676375112406e-41
180.0 170.0 2.0 9.147676375112406e-41
180.0 180.0 4.0 9.147676375112406e-41
180.0 190.0 4.0 9.147676375112406e-41
180.0 200.0 3.0 9.147676375112406e-41
180.0 210.0 6.0 9.147676375112406e-41
180.0 220.0 7.0 9.147676375112406e-41
180.0 230.0 8.0 9.147676375112406e-41
180.0 240.0 8.0 9.147676375112406e-41
180.0 250.0 6.0 9.147676375112406e-41
180.0 260.0 4.0 9.147676375112406e-41
180.0 270.0 4.0 9.147676375112406e-41
180.0 280.0 4.0 9.147676375112406e-41
180.0 290.0 4.0 9.147676375112406e-41
180.0 300.0 6.0 9.147676375112406e-41
180.0 310.0 4.0 9.147676375112406e-41
180.0 320.0 7.0 9.147676375112406e-41
180.0 330.0 4.0 9.147676375112406e-41
180.0 400.0 2.0 9.147676375112406e-41
190.0 430.0 3.0 9.147676375112406e-41
190.0 420.0 3.0 9.147676375112406e-41
190.0 410.0 4.0 9.147676375112406e-41
190.0 400.0 4.0 9.147676375112406e-41
190.0 390.0 4.0 9.147676375112406e-41
190.0 380.0 3.0 9.147676375112406e-41
190.0 370.0 3.0 9.147676375112406e-41
190.0 360.0 8.0 9.147676375112406e-41
190.0 350.0 2.0 9.147676375112406e-41
190.0 340.0 7.0 9.147676375112406e-41
190.0 330.0 7.0 9.147676375112406e-41
190.0 320.0 6.0 9.147676375112406e-41
190.0 310.0 4.0 9.147676375112406e-41
190.0 300.0 3.0 9.147676375112406e-41
190.0 290.0 4.0 9.147676375112406e-41
190.0 280.0 6.0 9.147676375112406e-41
190.0 270.0 7.0 9.147676375112406e-41
190.0 260.0 8.0 9.147676375112406e-41
190.0 250.0 8.0 9.147676375112406e-41
190.0 240.0 7.0 9.147676375112406e-41
190.0 230.0 8.0 9.147676375112406e-41
190.0 220.0 7.0 9.147676375112406e-41
190.0 210.0 6.0 9.147676375112406e-41
190.0 200.0 7.0 9.147676375112406e-41
190.0 190.0 7.0 9.147676375112406e-41
190.0 180.0 7.0 9.147676375112406e-41
190.0 170.0 6.0 9.147676375112406e-41
190.0 160.0 3.0 9.147676375112406e-41
190.0 150.0 4.0 9.147676375112406e-41
190.0 140.0 2.0 9.147676375112406e-41
200.0 110.0 3.0 9.147676375112406e-41
200.0 120.0 3.0 9.147676375112406e-41
200.0 130.0 3.0 9.147676375112406e-41
200.0 140.0 6.0 9.147676375112406e-41
200.0 150.0 6.0 9.147676375112406e-41
200.0 160.0 6.0 9.147676375112406e-41
200.0 170.0 7.0 9.147676375112406e-41
200.0 180.0 6.0 9.147676375112406e-41
200.0 190.0 7.0 9.147676375112406e-41
200.0 200.0 6.0 9.147676375112406e-41
200.0 210.0 6.0 9.147676375112406e-41
200.0 220.0 7.0 9.147676375112406e-41
200.0 230.0 7.0 9.147676375112406e-41
200.0 240.0 7.0 9.147676375112406e-41
200.0 250.0 6.0 9.147676375112406e-41
200.0 260.0 6.0 9.147676375112406e-41
200.0 270.0 6.0 9.147676375112406e-41
200.0 280.0 6.0 9.147676375112406e-41
200.0 290.0 7.0 9.147676375112406e-41
200.0 300.0 6.0 9.147676375112406e-41
200.0 310.0 6.0 9.147676375112406e-41
200.0 320.0 3.0 9.147676375112406e-41
200.0 330.0 4.0 9.147676375112406e-41
200.0 340.0 4.0 9.147676375112406e-41
200.0 350.0 4.0 9.147676375112406e-41
200.0 360.0 3.0 9.147676375112406e-41
200.0 380.0 4.0 9.147676375112406e-41
200.0 390.0 2.0 9.147676375112406e-41
200.0 400.0 2.0 9.147676375112406e-41
200.0 410.0 2.0 9.147676375112406e-41
200.0 420.0 2.0 9.147676375112406e-41
200.0 450.0 2.0 9.147676375112406e-41
210.0 440.0 2.0 9.147676375112406e-41
210.0 420.0 2.0 9.147676375112406e-41
210.0 410.0 2.0 9.147676375112406e-41
210.0 380.0 2.0 9.147676375112406e-41
210.0 370.0 2.0 9.147676375112406e-41
210.0 360.0 3.0 9.147676375112406e-41
210.0 350.0 4.0 9.147676375112406e-41
210.0 340.0 6.0 9.147676375112406e-41
210.0 330.0 4.0 9.147676375112406e-41
210.0 320.0 4.0 9.147676375112406e-41
210.0 310.0 4.0 9.147676375112406e-41
210.0 300.0 6.0 9.147676375112406e-41
210.0 290.0 6.0 9.147676375112406e-41
210.0 280.0 6.0 9.147676375112406e-41
210.0 270.0 7.0 9.147676375112406e-41
210.0 260.0 6.0 9.147676375112406e-41
210.0 250.0 6.0 9.147676375112406e-41
210.0 240.0 6.0 9.147676375112406e-41
210.0 230.0 6.0 9.147676375112406e-41
210.0 220.0 6.0 9.147676375112406e-41
210.0 210.0 6.0 9.147676375112406e-41
210.0 200.0 6.0 9.147676375112406e-41
210.0 190.0 7.0 9.147676375112406e-41
210.0 180.0 6.0 9.147676375112406e-41
210.0 170.0 3.0 9.147676375112406e-41
210.0 160.0 3.0 9.147676375112406e-41
210.0 150.0 4.0 9.147676375112406e-41
210.0 140.0 6.0 9.147676375112406e-41
210.0 130.0 6.0 9.147676375112406e-41
210.0 120.0 3.0 9.147676375112406e-41
210.0 110.0 4.0 9.147676375112406e-41
210.0 100.0 3.0 9.147676375112406e-41
220.0 100.0 4.0 9.147676375112406e-41
220.0 110.0 4.0 9.147676375112406e-41
220.0 120.0 3.0 9.147676375112406e-41
220.0 130.0 3.0 9.147676375112406e-41
220.0 140.0 4.0 9.147676375112406e-41
220.0 150.0 2.0 9.147676375112406e-41
220.0 160.0 4.0 9.147676375112406e-41
220.0 170.0 3.0 9.147676375112406e-41
220.0 180.0 4.0 9.147676375112406e-41
220.0 190.0 6.0 9.147676375112406e-41
220.0 200.0 7.0 9.147676375112406e-41
220.0 210.0 4.0 9.147676375112406e-41
220.0 220.0 7.0 9.147676375112406e-41
220.0 230.0 6.0 9.147676375112406e-41
220.0 240.0 6.0 9.147676375112406e-41
220.0 250.0 7.0 9.147676375112406e-41
220.0 260.0 6.0 9.147676375112406e-41
220.0 270.0 7.0 9.147676375112406e-41
220.0 280.0 6.0 9.147676375112406e-41
220.0 290.0 4.0 9.147676375112406e-41
220.0 300.0 4.0 9.147676375112406e-41
220.0 310.0 6.0 9.147676375112406e-41
220.0 320.0 4.0 9.147676375112406e-41
220.0 330.0 4.0 9.147676375112406e-41
220.0 340.0 3.0 9.147676375112406e-41
230.0 320.0 3.0 9.147676375112406e-41
230.0 310.0 6.0 9.147676375112406e-41
230.0 300.0 7.0 9.147676375112406e-41
230.0 290.0 7.0 9.147676375112406e-41
230.0 280.0 6.0 9.147676375112406e-41
230.0 270.0 6.0 9.147676375112406e-41
230.0 260.0 7.0 9.147676375112406e-41
230.0 250.0 7.0 9.147676375112406e-41
230.0 240.0 7.0 9.147676375112406e-41
230.0 230.0 6.0 9.147676375112406e-41
230.0 220.0 6.0 9.147676375112406e-41
230.0 210.0 6.0 9.147676375112406e-41
230.0 200.0 6.0 9.147676375112406e-41
230.0 190.0 4.0 9.147676375112406e-41
230.0 180.0 4.0 9.147676375112406e-41
230.0 170.0 4.0 9.147676375112406e-41
230.0 160.0 3.0 9.147676375112406e-41
230.0 150.0 4.0 9.147676375112406e-41
230.0 140.0 4.0 9.147676375112406e-41
230.0 130.0 4.0 9.147676375112406e-41
230.0 120.0 4.0 9.147676375112406e-41
230.0 110.0 3.0 9.147676375112406e-41
240.0 140.0 2.0 9.147676375112406e-41
240.0 150.0 2.0 9.147676375112406e-41
240.0 160.0 3.0 9.147676375112406e-41
240.0 170.0 4.0 9.147676375112406e-41
240.0 180.0 4.0 9.147676375112406e-41
240.0 190.0 6.0 9.147676375112406e-41
240.0 200.0 6.0 9.147676375112406e-41
240.0 210.0 4.0 9.147676375112406e-41
240.0 220.0 6.0 9.147676375112406e-41
240.0 230.0 6.0 9.147676375112406e-41
240.0 240.0 6.0 9.147676375112406e-41
240.0 250.0 6.0 9.147676375112406e-41
240.0 260.0 4.0 9.147676375112406e-41
240.0 270.0 6.0 9.147676375112406e-41
240.0 280.0 6.0 9.147676375112406e-41
240.0 290.0 3.0 9.147676375112406e-41
240.0 300.0 4.0 9.147676375112406e-41
250.0 300.0 2.0 9.147676375112406e-41
250.0 290.0 2.0 9.147676375112406e-41
250.0 280.0 3.0 9.147676375112406e-41
250.0 270.0 3.0 9.147676375112406e-41
250.0 260.0 3.0 9.147676375112406e-41
250.0 250.0 6.0 9.147676375112406e-41
250.0 240.0 4.0 9.147676375112406e-41
250.0 230.0 4.0 9.147676375112406e-41
250.0 220.0 4.0 9.147676375112406e-41
250.0 210.0 4.0 9.147676375112406e-41
250.0 200.0 4.0 9.147676375112406e-41
250.0 190.0 4.0 9.147676375112406e-41
250.0 180.0 3.0 9.147676375112406e-41
250.0 170.0 6.0 9.147676375112406e-41
250.0 160.0 2.0 9.147676375112406e-41
260.0 190.0 2.0 9.147676375112406e-41
260.0 200.0 4.0 9.147676375112406e-41
260.0 210.0 4.0 9.147676375112406e-41
260.0 220.0 4.0 9.147676375112406e-41
260.0 230.0 4.0 9.147676375112406e-41
260.0 240.0 4.0 9.147676375112406e-41
260.0 250.0 4.0 9.147676375112406e-41
260.0 260.0 4.0 9.147676375112406e-41
260.0 270.0 4.0 9.147676375112406e-41
260.0 280.0 3.0 9.147676375112406e-41
270.0 310.0 2.0 9.147676375112406e-41
270.0 290.0 3.0 9.147676375112406e-41
270.0 280.0 3.0 9.147676375112406e-41
270.0 270.0 6.0 9.147676375112406e-41
270.0 260.0 7.0 9.147676375112406e-41
270.0 250.0 8.0 9.147676375112406e-41
270.0 240.0 8.0 9.147676375112406e-41
270.0 230.0 7.0 9.147676375112406e-41
270.0 220.0 8.0 9.147676375112406e-41
270.0 210.0 8.0 9.147676375112406e-41
270.0 200.0 8.0 9.147676375112406e-41
270.0 190.0 6.0 9.147676375112406e-41
270.0 180.0 3.0 9.147676375112406e-41
280.0 160.0 2.0 9.147676375112406e-41
280.0 170.0 6.0 9.147676375112406e-41
280.0 180.0 8.0 9.147676375112406e-41
280.0 190.0 9.0 9.147676375112406e-41
280.0 200.0 10.0 9.147676375112406e-41
280.0 210.0 10.0 9.147676375112406e-41
280.0 220.0 11.0 9.147676375112406e-41
280.0 230.0 10.0 9.147676375112406e-41
280.0 240.0 9.0 9.147676375112406e-41
280.0 250.0 11.0 9.147676375112406e-41
280.0 260.0 9.0 9.147676375112406e-41
280.0 270.0 8.0 9.147676375112406e-41
280.0 280.0 4.0 9.147676375112406e-41
280.0 290.0 3.0 9.147676375112406e-41
290.0 300.0 2.0 9.147676375112406e-41
