# .PCD v.7 - Point Cloud Data file format
VERSION .7
FIELDS x y z rgb
SIZE 4 4 4 4
TYPE F F F F
COUNT 1 1 1 1
WIDTH 722
HEIGHT 1
VIEWPOINT 0 0 0 1 0 0 0
POINTS 722
DATA ascii
0.0 170.0 2.0 9.147676375112406e-41
0.0 190.0 3.0 9.147676375112406e-41
0.0 200.0 7.0 9.147676375112406e-41
0.0 210.0 8.0 9.147676375112406e-41
0.0 220.0 9.0 9.147676375112406e-41
0.0 230.0 10.0 9.147676375112406e-41
0.0 240.0 10.0 9.147676375112406e-41
0.0 250.0 10.0 9.147676375112406e-41
0.0 260.0 12.0 9.147676375112406e-41
0.0 270.0 13.0 9.147676375112406e-41
0.0 280.0 11.0 9.147676375112406e-41
0.0 290.0 10.0 9.147676375112406e-41
0.0 300.0 12.0 9.147676375112406e-41
0.0 310.0 12.0 9.147676375112406e-41
0.0 320.0 14.0 9.147676375112406e-41
0.0 330.0 13.0 9.147676375112406e-41
0.0 340.0 12.0 9.147676375112406e-41
0.0 350.0 2.0 9.147676375112406e-41
0.0 360.0 3.0 9.147676375112406e-41
0.0 370.0 2.0 9.147676375112406e-41
0.0 380.0 2.0 9.147676375112406e-41
0.0 390.0 3.0 9.147676375112406e-41
0.0 400.0 2.0 9.147676375112406e-41
0.0 410.0 2.0 9.147676375112406e-41
0.0 420.0 2.0 9.147676375112406e-41
0.0 430.0 2.0 9.147676375112406e-41
0.0 440.0 3.0 9.147676375112406e-41
0.0 450.0 2.0 9.147676375112406e-41
0.0 470.0 4.0 9.147676375112406e-41
0.0 480.0 4.0 9.147676375112406e-41
0.0 490.0 3.0 9.147676375112406e-41
0.0 500.0 4.0 9.147676375112406e-41
10.0 500.0 2.0 9.147676375112406e-41
10.0 490.0 5.0 9.147676375112406e-41
10.0 480.0 7.0 9.147676375112406e-41
10.0 470.0 4.0 9.147676375112406e-41
10.0 460.0 7.0 9.147676375112406e-41
10.0 450.0 4.0 9.147676375112406e-41
10.0 440.0 5.0 9.147676375112406e-41
10.0 430.0 5.0 9.147676375112406e-41
10.0 420.0 4.0 9.147676375112406e-41
10.0 410.0 7.0 9.147676375112406e-41
10.0 400.0 5.0 9.147676375112406e-41
10.0 390.0 7.0 9.147676375112406e-41
10.0 380.0 5.0 9.147676375112406e-41
10.0 370.0 5.0 9.147676375112406e-41
10.0 360.0 5.0 9.147676375112406e-41
10.0 350.0 5.0 9.147676375112406e-41
10.0 340.0 5.0 9.147676375112406e-41
10.0 330.0 3.0 9.147676375112406e-41
10.0 320.0 4.0 9.147676375112406e-41
10.0 310.0 3.0 9.147676375112406e-41
10.0 300.0 3.0 9.147676375112406e-41
10.0 290.0 4.0 9.147676375112406e-41
10.0 280.0 4.0 9.147676375112406e-41
10.0 270.0 4.0 9.147676375112406e-41
10.0 260.0 4.0 9.147676375112406e-41
10.0 250.0 3.0 9.147676375112406e-41
10.0 240.0 4.0 9.147676375112406e-41
10.0 230.0 3.0 9.147676375112406e-41
10.0 220.0 2.0 9.147676375112406e-41
10.0 210.0 3.0 9.147676375112406e-41
10.0 200.0 3.0 9.147676375112406e-41
10.0 190.0 2.0 9.147676375112406e-41
10.0 180.0 2.0 9.147676375112406e-41
10.0 170.0 2.0 9.147676375112406e-41
10.0 140.0 2.0 9.147676375112406e-41
10.0 130.0 2.0 9.147676375112406e-41
10.0 110.0 2.0 9.147676375112406e-41
10.0 100.0 2.0 9.147676375112406e-41
10.0 90.0 2.0 9.147676375112406e-41
10.0 80.0 2.0 9.147676375112406e-41
10.0 70.0 2.0 9.147676375112406e-41
10.0 60.0 2.0 9.147676375112406e-41
20.0 170.0 2.0 9.147676375112406e-41
20.0 180.0 2.0 9.147676375112406e-41
20.0 190.0 4.0 9.147676375112406e-41
20.0 200.0 7.0 9.147676375112406e-41
20.0 210.0 7.0 9.147676375112406e-41
20.0 220.0 8.0 9.147676375112406e-41
20.0 230.0 9.0 9.147676375112406e-41
20.0 240.0 10.0 9.147676375112406e-41
20.0 250.0 11.0 9.147676375112406e-41
20.0 260.0 11.0 9.147676375112406e-41
20.0 270.0 11.0 9.147676375112406e-41
20.0 280.0 11.0 9.147676375112406e-41
20.0 290.0 9.0 9.147676375112406e-41
20.0 300.0 12.0 9.147676375112406e-41
20.0 310.0 12.0 9.147676375112406e-41
20.0 320.0 13.0 9.147676375112406e-41
20.0 330.0 13.0 9.147676375112406e-41
20.0 340.0 14.0 9.147676375112406e-41
20.0 350.0 12.0 9.147676375112406e-41
20.0 360.0 13.0 9.147676375112406e-41
20.0 370.0 13.0 9.147676375112406e-41
20.0 380.0 12.0 9.147676375112406e-41
20.0 390.0 12.0 9.147676375112406e-41
20.0 400.0 11.0 9.147676375112406e-41
20.0 410.0 11.0 9.147676375112406e-41
20.0 420.0 10.0 9.147676375112406e-41
20.0 430.0 9.0 9.147676375112406e-41
20.0 440.0 8.0 9.147676375112406e-41
20.0 450.0 8.0 9.147676375112406e-41
20.0 460.0 7.0 9.147676375112406e-41
20.0 470.0 7.0 9.147676375112406e-41
20.0 480.0 5.0 9.147676375112406e-41
20.0 490.0 5.0 9.147676375112406e-41
20.0 500.0 5.0 9.147676375112406e-41
30.0 500.0 5.0 9.147676375112406e-41
30.0 490.0 10.0 9.147676375112406e-41
30.0 480.0 15.0 9.147676375112406e-41
30.0 470.0 15.0 9.147676375112406e-41
30.0 460.0 16.0 9.147676375112406e-41
30.0 450.0 17.0 9.147676375112406e-41
30.0 440.0 17.0 9.147676375112406e-41
30.0 430.0 17.0 9.147676375112406e-41
30.0 420.0 18.0 9.147676375112406e-41
30.0 410.0 18.0 9.147676375112406e-41
30.0 400.0 18.0 9.147676375112406e-41
30.0 390.0 18.0 9.147676375112406e-41
30.0 380.0 18.0 9.147676375112406e-41
30.0 370.0 17.0 9.147676375112406e-41
30.0 360.0 17.0 9.147676375112406e-41
30.0 350.0 16.0 9.147676375112406e-41
30.0 340.0 18.0 9.147676375112406e-41
30.0 330.0 16.0 9.147676375112406e-41
30.0 320.0 15.0 9.147676375112406e-41
30.0 310.0 14.0 9.147676375112406e-41
30.0 300.0 14.0 9.147676375112406e-41
30.0 290.0 16.0 9.147676375112406e-41
30.0 280.0 15.0 9.147676375112406e-41
30.0 270.0 14.0 9.147676375112406e-41
30.0 260.0 16.0 9.147676375112406e-41
30.0 250.0 16.0 9.147676375112406e-41
30.0 240.0 16.0 9.147676375112406e-41
30.0 230.0 14.0 9.147676375112406e-41
30.0 220.0 14.0 9.147676375112406e-41
30.0 210.0 12.0 9.147676375112406e-41
30.0 200.0 13.0 9.147676375112406e-41
30.0 190.0 10.0 9.147676375112406e-41
30.0 180.0 8.0 9.147676375112406e-41
30.0 170.0 5.0 9.147676375112406e-41
30.0 160.0 4.0 9.147676375112406e-41
30.0 150.0 2.0 9.147676375112406e-41
30.0 130.0 2.0 9.147676375112406e-41
30.0 120.0 2.0 9.147676375112406e-41
40.0 130.0 3.0 9.147676375112406e-41
40.0 140.0 7.0 9.147676375112406e-41
40.0 150.0 11.0 9.147676375112406e-41
40.0 160.0 13.0 9.147676375112406e-41
40.0 170.0 15.0 9.147676375112406e-41
40.0 180.0 15.0 9.147676375112406e-41
40.0 190.0 17.0 9.147676375112406e-41
40.0 200.0 18.0 9.147676375112406e-41
40.0 210.0 18.0 9.147676375112406e-41
40.0 220.0 19.0 9.147676375112406e-41
40.0 230.0 20.0 9.147676375112406e-41
40.0 240.0 20.0 9.147676375112406e-41
40.0 250.0 20.0 9.147676375112406e-41
40.0 260.0 17.0 9.147676375112406e-41
40.0 270.0 16.0 9.147676375112406e-41
40.0 280.0 16.0 9.147676375112406e-41
40.0 290.0 21.0 9.147676375112406e-41
40.0 300.0 20.0 9.147676375112406e-41
40.0 310.0 19.0 9.147676375112406e-41
40.0 320.0 18.0 9.147676375112406e-41
40.0 330.0 22.0 9.147676375112406e-41
40.0 340.0 22.0 9.147676375112406e-41
40.0 350.0 22.0 9.147676375112406e-41
40.0 360.0 24.0 9.147676375112406e-41
40.0 370.0 22.0 9.147676375112406e-41
40.0 380.0 21.0 9.147676375112406e-41
40.0 390.0 21.0 9.147676375112406e-41
40.0 400.0 19.0 9.147676375112406e-41
40.0 410.0 20.0 9.147676375112406e-41
40.0 420.0 20.0 9.147676375112406e-41
40.0 430.0 20.0 9.147676375112406e-41
40.0 440.0 18.0 9.147676375112406e-41
40.0 450.0 18.0 9.147676375112406e-41
40.0 460.0 18.0 9.147676375112406e-41
40.0 470.0 16.0 9.147676375112406e-41
40.0 480.0 17.0 9.147676375112406e-41
40.0 490.0 11.0 9.147676375112406e-41
40.0 500.0 12.0 9.147676375112406e-41
50.0 500.0 13.0 9.147676375112406e-41
50.0 490.0 17.0 9.147676375112406e-41
50.0 480.0 22.0 9.147676375112406e-41
50.0 470.0 25.0 9.147676375112406e-41
50.0 460.0 24.0 9.147676375112406e-41
50.0 450.0 26.0 9.147676375112406e-41
50.0 440.0 24.0 9.147676375112406e-41
50.0 430.0 25.0 9.147676375112406e-41
50.0 420.0 26.0 9.147676375112406e-41
50.0 410.0 27.0 9.147676375112406e-41
50.0 400.0 28.0 9.147676375112406e-41
50.0 390.0 28.0 9.147676375112406e-41
50.0 380.0 28.0 9.147676375112406e-41
50.0 370.0 28.0 9.147676375112406e-41
50.0 360.0 31.0 9.147676375112406e-41
50.0 350.0 29.0 9.147676375112406e-41
50.0 340.0 27.0 9.147676375112406e-41
50.0 330.0 26.0 9.147676375112406e-41
50.0 320.0 22.0 9.147676375112406e-41
50.0 310.0 22.0 9.147676375112406e-41
50.0 300.0 29.0 9.147676375112406e-41
50.0 290.0 30.0 9.147676375112406e-41
50.0 280.0 28.0 9.147676375112406e-41
50.0 270.0 22.0 9.147676375112406e-41
50.0 260.0 24.0 9.147676375112406e-41
50.0 250.0 25.0 9.147676375112406e-41
50.0 240.0 26.0 9.147676375112406e-41
50.0 230.0 26.0 9.147676375112406e-41
50.0 220.0 25.0 9.147676375112406e-41
50.0 210.0 24.0 9.147676375112406e-41
50.0 200.0 21.0 9.147676375112406e-41
50.0 190.0 20.0 9.147676375112406e-41
50.0 180.0 20.0 9.147676375112406e-41
50.0 170.0 19.0 9.147676375112406e-41
50.0 160.0 16.0 9.147676375112406e-41
50.0 150.0 14.0 9.147676375112406e-41
50.0 140.0 7.0 9.147676375112406e-41
50.0 130.0 4.0 9.147676375112406e-41
60.0 110.0 2.0 9.147676375112406e-41
60.0 120.0 5.0 9.147676375112406e-41
60.0 130.0 10.0 9.147676375112406e-41
60.0 140.0 18.0 9.147676375112406e-41
60.0 150.0 19.0 9.147676375112406e-41
60.0 160.0 21.0 9.147676375112406e-41
60.0 170.0 24.0 9.147676375112406e-41
60.0 180.0 25.0 9.147676375112406e-41
60.0 190.0 26.0 9.147676375112406e-41
60.0 200.0 25.0 9.147676375112406e-41
60.0 210.0 27.0 9.147676375112406e-41
60.0 220.0 28.0 9.147676375112406e-41
60.0 230.0 29.0 9.147676375112406e-41
60.0 240.0 29.0 9.147676375112406e-41
60.0 250.0 28.0 9.147676375112406e-41
60.0 260.0 25.0 9.147676375112406e-41
60.0 270.0 24.0 9.147676375112406e-41
60.0 300.0 27.0 9.147676375112406e-41
60.0 310.0 25.0 9.147676375112406e-41
60.0 320.0 27.0 9.147676375112406e-41
60.0 330.0 30.0 9.147676375112406e-41
60.0 340.0 33.0 9.147676375112406e-41
60.0 350.0 31.0 9.147676375112406e-41
60.0 360.0 31.0 9.147676375112406e-41
60.0 370.0 30.0 9.147676375112406e-41
60.0 380.0 30.0 9.147676375112406e-41
60.0 390.0 30.0 9.147676375112406e-41
60.0 400.0 30.0 9.147676375112406e-41
60.0 410.0 28.0 9.147676375112406e-41
60.0 420.0 28.0 9.147676375112406e-41
60.0 430.0 28.0 9.147676375112406e-41
60.0 440.0 28.0 9.147676375112406e-41
60.0 450.0 25.0 9.147676375112406e-41
60.0 460.0 26.0 9.147676375112406e-41
60.0 470.0 24.0 9.147676375112406e-41
60.0 480.0 20.0 9.147676375112406e-41
60.0 490.0 17.0 9.147676375112406e-41
60.0 500.0 15.0 9.147676375112406e-41
70.0 500.0 21.0 9.147676375112406e-41
70.0 490.0 16.0 9.147676375112406e-41
70.0 480.0 26.0 9.147676375112406e-41
70.0 470.0 29.0 9.147676375112406e-41
70.0 460.0 30.0 9.147676375112406e-41
70.0 450.0 31.0 9.147676375112406e-41
70.0 440.0 32.0 9.147676375112406e-41
70.0 430.0 32.0 9.147676375112406e-41
70.0 420.0 34.0 9.147676375112406e-41
70.0 410.0 33.0 9.147676375112406e-41
70.0 400.0 34.0 9.147676375112406e-41
70.0 390.0 35.0 9.147676375112406e-41
70.0 380.0 34.0 9.147676375112406e-41
70.0 370.0 35.0 9.147676375112406e-41
70.0 360.0 35.0 9.147676375112406e-41
70.0 350.0 36.0 9.147676375112406e-41
70.0 340.0 33.0 9.147676375112406e-41
70.0 330.0 33.0 9.147676375112406e-41
70.0 320.0 31.0 9.147676375112406e-41
70.0 310.0 29.0 9.147676375112406e-41
70.0 290.0 29.0 9.147676375112406e-41
70.0 270.0 25.0 9.147676375112406e-41
70.0 260.0 29.0 9.147676375112406e-41
70.0 250.0 32.0 9.147676375112406e-41
70.0 240.0 33.0 9.147676375112406e-41
70.0 230.0 32.0 9.147676375112406e-41
70.0 220.0 31.0 9.147676375112406e-41
70.0 210.0 30.0 9.147676375112406e-41
70.0 200.0 30.0 9.147676375112406e-41
70.0 190.0 30.0 9.147676375112406e-41
70.0 180.0 27.0 9.147676375112406e-41
70.0 170.0 27.0 9.147676375112406e-41
70.0 160.0 25.0 9.147676375112406e-41
70.0 150.0 19.0 9.147676375112406e-41
70.0 140.0 16.0 9.147676375112406e-41
70.0 130.0 8.0 9.147676375112406e-41
70.0 120.0 2.0 9.147676375112406e-41
70.0 110.0 2.0 9.147676375112406e-41
80.0 120.0 8.0 9.147676375112406e-41
80.0 130.0 16.0 9.147676375112406e-41
80.0 140.0 24.0 9.147676375112406e-41
80.0 150.0 27.0 9.147676375112406e-41
80.0 160.0 29.0 9.147676375112406e-41
80.0 170.0 29.0 9.147676375112406e-41
80.0 180.0 30.0 9.147676375112406e-41
80.0 190.0 31.0 9.147676375112406e-41
80.0 200.0 32.0 9.147676375112406e-41
80.0 210.0 34.0 9.147676375112406e-41
80.0 220.0 34.0 9.147676375112406e-41
80.0 230.0 34.0 9.147676375112406e-41
80.0 240.0 34.0 9.147676375112406e-41
80.0 250.0 32.0 9.147676375112406e-41
80.0 260.0 31.0 9.147676375112406e-41
80.0 270.0 31.0 9.147676375112406e-41
80.0 280.0 33.0 9.147676375112406e-41
80.0 290.0 35.0 9.147676375112406e-41
80.0 300.0 32.0 9.147676375112406e-41
80.0 310.0 33.0 9.147676375112406e-41
80.0 320.0 35.0 9.147676375112406e-41
80.0 330.0 36.0 9.147676375112406e-41
80.0 340.0 38.0 9.147676375112406e-41
80.0 350.0 36.0 9.147676375112406e-41
80.0 360.0 37.0 9.147676375112406e-41
80.0 370.0 36.0 9.147676375112406e-41
80.0 380.0 36.0 9.147676375112406e-41
80.0 390.0 35.0 9.147676375112406e-41
80.0 400.0 35.0 9.147676375112406e-41
80.0 410.0 34.0 9.147676375112406e-41
80.0 420.0 33.0 9.147676375112406e-41
80.0 430.0 33.0 9.147676375112406e-41
80.0 440.0 32.0 9.147676375112406e-41
80.0 450.0 30.0 9.147676375112406e-41
80.0 460.0 29.0 9.147676375112406e-41
80.0 470.0 26.0 9.147676375112406e-41
80.0 480.0 21.0 9.147676375112406e-41
80.0 490.0 14.0 9.147676375112406e-41
80.0 500.0 13.0 9.147676375112406e-41
90.0 500.0 24.0 9.147676375112406e-41
90.0 490.0 18.0 9.147676375112406e-41
90.0 480.0 27.0 9.147676375112406e-41
90.0 470.0 30.0 9.147676375112406e-41
90.0 460.0 34.0 9.147676375112406e-41
90.0 450.0 36.0 9.147676375112406e-41
90.0 440.0 37.0 9.147676375112406e-41
90.0 430.0 38.0 9.147676375112406e-41
90.0 420.0 39.0 9.147676375112406e-41
90.0 410.0 41.0 9.147676375112406e-41
90.0 400.0 41.0 9.147676375112406e-41
90.0 390.0 39.0 9.147676375112406e-41
90.0 380.0 39.0 9.147676375112406e-41
90.0 370.0 39.0 9.147676375112406e-41
90.0 360.0 39.0 9.147676375112406e-41
90.0 350.0 39.0 9.147676375112406e-41
90.0 340.0 42.0 9.147676375112406e-41
90.0 330.0 37.0 9.147676375112406e-41
90.0 320.0 35.0 9.147676375112406e-41
90.0 310.0 37.0 9.147676375112406e-41
90.0 300.0 38.0 9.147676375112406e-41
90.0 290.0 41.0 9.147676375112406e-41
90.0 280.0 39.0 9.147676375112406e-41
90.0 270.0 36.0 9.147676375112406e-41
90.0 260.0 34.0 9.147676375112406e-41
90.0 250.0 36.0 9.147676375112406e-41
90.0 240.0 37.0 9.147676375112406e-41
90.0 230.0 36.0 9.147676375112406e-41
90.0 220.0 37.0 9.147676375112406e-41
90.0 210.0 36.0 9.147676375112406e-41
90.0 200.0 35.0 9.147676375112406e-41
90.0 190.0 35.0 9.147676375112406e-41
90.0 180.0 33.0 9.147676375112406e-41
90.0 170.0 33.0 9.147676375112406e-41
90.0 160.0 29.0 9.147676375112406e-41
90.0 150.0 27.0 9.147676375112406e-41
90.0 140.0 17.0 9.147676375112406e-41
90.0 130.0 12.0 9.147676375112406e-41
90.0 120.0 2.0 9.147676375112406e-41
100.0 120.0 5.0 9.147676375112406e-41
100.0 130.0 16.0 9.147676375112406e-41
100.0 140.0 24.0 9.147676375112406e-41
100.0 150.0 30.0 9.147676375112406e-41
100.0 160.0 32.0 9.147676375112406e-41
100.0 170.0 34.0 9.147676375112406e-41
100.0 180.0 36.0 9.147676375112406e-41
100.0 190.0 36.0 9.147676375112406e-41
100.0 200.0 36.0 9.147676375112406e-41
100.0 210.0 38.0 9.147676375112406e-41
100.0 220.0 38.0 9.147676375112406e-41
100.0 230.0 37.0 9.147676375112406e-41
100.0 240.0 39.0 9.147676375112406e-41
100.0 250.0 41.0 9.147676375112406e-41
100.0 260.0 38.0 9.147676375112406e-41
100.0 270.0 41.0 9.147676375112406e-41
100.0 280.0 41.0 9.147676375112406e-41
100.0 290.0 41.0 9.147676375112406e-41
100.0 300.0 41.0 9.147676375112406e-41
100.0 310.0 42.0 9.147676375112406e-41
100.0 320.0 42.0 9.147676375112406e-41
100.0 330.0 42.0 9.147676375112406e-41
100.0 340.0 42.0 9.147676375112406e-41
100.0 350.0 42.0 9.147676375112406e-41
100.0 360.0 41.0 9.147676375112406e-41
100.0 370.0 41.0 9.147676375112406e-41
100.0 380.0 38.0 9.147676375112406e-41
100.0 390.0 41.0 9.147676375112406e-41
100.0 400.0 39.0 9.147676375112406e-41
100.0 410.0 37.0 9.147676375112406e-41
100.0 420.0 35.0 9.147676375112406e-41
100.0 430.0 35.0 9.147676375112406e-41
100.0 440.0 32.0 9.147676375112406e-41
100.0 450.0 30.0 9.147676375112406e-41
100.0 460.0 29.0 9.147676375112406e-41
100.0 470.0 26.0 9.147676375112406e-41
100.0 480.0 21.0 9.147676375112406e-41
100.0 490.0 10.0 9.147676375112406e-41
100.0 500.0 7.0 9.147676375112406e-41
110.0 500.0 10.0 9.147676375112406e-41
110.0 490.0 3.0 9.147676375112406e-41
110.0 480.0 26.0 9.147676375112406e-41
110.0 470.0 31.0 9.147676375112406e-41
110.0 460.0 34.0 9.147676375112406e-41
110.0 450.0 36.0 9.147676375112406e-41
110.0 440.0 38.0 9.147676375112406e-41
110.0 430.0 38.0 9.147676375112406e-41
110.0 420.0 42.0 9.147676375112406e-41
110.0 410.0 41.0 9.147676375112406e-41
110.0 400.0 42.0 9.147676375112406e-41
110.0 390.0 42.0 9.147676375112406e-41
110.0 380.0 42.0 9.147676375112406e-41
110.0 370.0 43.0 9.147676375112406e-41
110.0 360.0 43.0 9.147676375112406e-41
110.0 350.0 43.0 9.147676375112406e-41
110.0 340.0 43.0 9.147676375112406e-41
110.0 330.0 43.0 9.147676375112406e-41
110.0 320.0 43.0 9.147676375112406e-41
110.0 310.0 43.0 9.147676375112406e-41
110.0 300.0 41.0 9.147676375112406e-41
110.0 290.0 42.0 9.147676375112406e-41
110.0 280.0 42.0 9.147676375112406e-41
110.0 270.0 42.0 9.147676375112406e-41
110.0 260.0 41.0 9.147676375112406e-41
110.0 250.0 41.0 9.147676375112406e-41
110.0 240.0 39.0 9.147676375112406e-41
110.0 230.0 41.0 9.147676375112406e-41
110.0 220.0 41.0 9.147676375112406e-41
110.0 210.0 39.0 9.147676375112406e-41
110.0 200.0 38.0 9.147676375112406e-41
110.0 190.0 37.0 9.147676375112406e-41
110.0 180.0 36.0 9.147676375112406e-41
110.0 170.0 34.0 9.147676375112406e-41
110.0 160.0 31.0 9.147676375112406e-41
110.0 150.0 30.0 9.147676375112406e-41
110.0 140.0 16.0 9.147676375112406e-41
110.0 130.0 7.0 9.147676375112406e-41
110.0 120.0 3.0 9.147676375112406e-41
110.0 100.0 2.0 9.147676375112406e-41
120.0 120.0 4.0 9.147676375112406e-41
120.0 130.0 13.0 9.147676375112406e-41
120.0 140.0 26.0 9.147676375112406e-41
120.0 150.0 30.0 9.147676375112406e-41
120.0 160.0 31.0 9.147676375112406e-41
120.0 170.0 33.0 9.147676375112406e-41
120.0 180.0 36.0 9.147676375112406e-41
120.0 190.0 37.0 9.147676375112406e-41
120.0 200.0 37.0 9.147676375112406e-41
120.0 210.0 38.0 9.147676375112406e-41
120.0 220.0 38.0 9.147676375112406e-41
120.0 230.0 39.0 9.147676375112406e-41
120.0 240.0 39.0 9.147676375112406e-41
120.0 250.0 39.0 9.147676375112406e-41
120.0 260.0 39.0 9.147676375112406e-41
120.0 270.0 41.0 9.147676375112406e-41
120.0 280.0 41.0 9.147676375112406e-41
120.0 290.0 42.0 9.147676375112406e-41
120.0 300.0 43.0 9.147676375112406e-41
120.0 310.0 43.0 9.147676375112406e-41
120.0 320.0 42.0 9.147676375112406e-41
120.0 330.0 43.0 9.147676375112406e-41
120.0 340.0 42.0 9.147676375112406e-41
120.0 350.0 41.0 9.147676375112406e-41
120.0 360.0 41.0 9.147676375112406e-41
120.0 370.0 41.0 9.147676375112406e-41
120.0 380.0 39.0 9.147676375112406e-41
120.0 390.0 39.0 9.147676375112406e-41
120.0 400.0 37.0 9.147676375112406e-41
120.0 410.0 36.0 9.147676375112406e-41
120.0 420.0 34.0 9.147676375112406e-41
120.0 430.0 33.0 9.147676375112406e-41
120.0 440.0 31.0 9.147676375112406e-41
120.0 450.0 27.0 9.147676375112406e-41
120.0 460.0 24.0 9.147676375112406e-41
120.0 470.0 16.0 9.147676375112406e-41
120.0 480.0 6.0 9.147676375112406e-41
130.0 500.0 8.0 9.147676375112406e-41
130.0 480.0 8.0 9.147676375112406e-41
130.0 470.0 22.0 9.147676375112406e-41
130.0 460.0 30.0 9.147676375112406e-41
130.0 450.0 32.0 9.147676375112406e-41
130.0 440.0 35.0 9.147676375112406e-41
130.0 430.0 37.0 9.147676375112406e-41
130.0 420.0 38.0 9.147676375112406e-41
130.0 410.0 39.0 9.147676375112406e-41
130.0 400.0 38.0 9.147676375112406e-41
130.0 390.0 41.0 9.147676375112406e-41
130.0 380.0 41.0 9.147676375112406e-41
130.0 370.0 41.0 9.147676375112406e-41
130.0 360.0 41.0 9.147676375112406e-41
130.0 350.0 42.0 9.147676375112406e-41
130.0 340.0 41.0 9.147676375112406e-41
130.0 330.0 42.0 9.147676375112406e-41
130.0 320.0 43.0 9.147676375112406e-41
130.0 310.0 42.0 9.147676375112406e-41
130.0 300.0 42.0 9.147676375112406e-41
130.0 290.0 42.0 9.147676375112406e-41
130.0 280.0 42.0 9.147676375112406e-41
130.0 270.0 42.0 9.147676375112406e-41
130.0 260.0 41.0 9.147676375112406e-41
130.0 250.0 41.0 9.147676375112406e-41
130.0 240.0 41.0 9.147676375112406e-41
130.0 230.0 39.0 9.147676375112406e-41
130.0 220.0 41.0 9.147676375112406e-41
130.0 210.0 39.0 9.147676375112406e-41
130.0 200.0 37.0 9.147676375112406e-41
130.0 190.0 37.0 9.147676375112406e-41
130.0 180.0 35.0 9.147676375112406e-41
130.0 170.0 32.0 9.147676375112406e-41
130.0 160.0 31.0 9.147676375112406e-41
130.0 150.0 22.0 9.147676375112406e-41
130.0 140.0 13.0 9.147676375112406e-41
140.0 130.0 3.0 9.147676375112406e-41
140.0 140.0 14.0 9.147676375112406e-41
140.0 150.0 27.0 9.147676375112406e-41
140.0 160.0 29.0 9.147676375112406e-41
140.0 170.0 29.0 9.147676375112406e-41
140.0 180.0 33.0 9.147676375112406e-41
140.0 190.0 33.0 9.147676375112406e-41
140.0 200.0 34.0 9.147676375112406e-41
140.0 210.0 36.0 9.147676375112406e-41
140.0 220.0 36.0 9.147676375112406e-41
140.0 230.0 37.0 9.147676375112406e-41
140.0 240.0 39.0 9.147676375112406e-41
140.0 250.0 37.0 9.147676375112406e-41
140.0 260.0 38.0 9.147676375112406e-41
140.0 270.0 38.0 9.147676375112406e-41
140.0 280.0 37.0 9.147676375112406e-41
140.0 290.0 38.0 9.147676375112406e-41
140.0 300.0 38.0 9.147676375112406e-41
140.0 310.0 38.0 9.147676375112406e-41
140.0 320.0 39.0 9.147676375112406e-41
140.0 330.0 39.0 9.147676375112406e-41
140.0 340.0 38.0 9.147676375112406e-41
140.0 350.0 37.0 9.147676375112406e-41
140.0 360.0 37.0 9.147676375112406e-41
140.0 370.0 36.0 9.147676375112406e-41
140.0 380.0 35.0 9.147676375112406e-41
140.0 390.0 35.0 9.147676375112406e-41
140.0 400.0 33.0 9.147676375112406e-41
140.0 410.0 31.0 9.147676375112406e-41
140.0 420.0 30.0 9.147676375112406e-41
140.0 430.0 26.0 9.147676375112406e-41
140.0 440.0 19.0 9.147676375112406e-41
140.0 450.0 22.0 9.147676375112406e-41
140.0 460.0 4.0 9.147676375112406e-41
150.0 470.0 4.0 9.147676375112406e-41
150.0 460.0 20.0 9.147676375112406e-41
150.0 450.0 24.0 9.147676375112406e-41
150.0 440.0 28.0 9.147676375112406e-41
150.0 430.0 31.0 9.147676375112406e-41
150.0 420.0 33.0 9.147676375112406e-41
150.0 410.0 34.0 9.147676375112406e-41
150.0 400.0 35.0 9.147676375112406e-41
150.0 390.0 36.0 9.147676375112406e-41
150.0 380.0 37.0 9.147676375112406e-41
150.0 370.0 38.0 9.147676375112406e-41
150.0 360.0 38.0 9.147676375112406e-41
150.0 350.0 39.0 9.147676375112406e-41
150.0 340.0 38.0 9.147676375112406e-41
150.0 330.0 38.0 9.147676375112406e-41
150.0 320.0 39.0 9.147676375112406e-41
150.0 310.0 39.0 9.147676375112406e-41
150.0 300.0 38.0 9.147676375112406e-41
150.0 290.0 39.0 9.147676375112406e-41
150.0 280.0 39.0 9.147676375112406e-41
150.0 270.0 39.0 9.147676375112406e-41
150.0 260.0 38.0 9.147676375112406e-41
150.0 250.0 38.0 9.147676375112406e-41
150.0 240.0 38.0 9.147676375112406e-41
150.0 230.0 37.0 9.147676375112406e-41
150.0 220.0 36.0 9.147676375112406e-41
150.0 210.0 35.0 9.147676375112406e-41
150.0 200.0 34.0 9.147676375112406e-41
150.0 190.0 32.0 9.147676375112406e-41
150.0 180.0 30.0 9.147676375112406e-41
150.0 170.0 27.0 9.147676375112406e-41
150.0 160.0 22.0 9.147676375112406e-41
150.0 150.0 15.0 9.147676375112406e-41
160.0 150.0 5.0 9.147676375112406e-41
160.0 160.0 12.0 9.147676375112406e-41
160.0 170.0 18.0 9.147676375112406e-41
160.0 180.0 25.0 9.147676375112406e-41
160.0 190.0 27.0 9.147676375112406e-41
160.0 200.0 28.0 9.147676375112406e-41
160.0 210.0 29.0 9.147676375112406e-41
160.0 220.0 31.0 9.147676375112406e-41
160.0 230.0 32.0 9.147676375112406e-41
160.0 240.0 32.0 9.147676375112406e-41
160.0 250.0 32.0 9.147676375112406e-41
160.0 260.0 31.0 9.147676375112406e-41
160.0 270.0 34.0 9.147676375112406e-41
160.0 280.0 34.0 9.147676375112406e-41
160.0 290.0 32.0 9.147676375112406e-41
160.0 300.0 34.0 9.147676375112406e-41
160.0 310.0 33.0 9.147676375112406e-41
160.0 320.0 33.0 9.147676375112406e-41
160.0 330.0 33.0 9.147676375112406e-41
160.0 340.0 32.0 9.147676375112406e-41
160.0 350.0 32.0 9.147676375112406e-41
160.0 360.0 30.0 9.147676375112406e-41
160.0 370.0 30.0 9.147676375112406e-41
160.0 380.0 28.0 9.147676375112406e-41
160.0 390.0 27.0 9.147676375112406e-41
160.0 400.0 25.0 9.147676375112406e-41
160.0 410.0 20.0 9.147676375112406e-41
160.0 420.0 16.0 9.147676375112406e-41
160.0 430.0 11.0 9.147676375112406e-41
160.0 440.0 3.0 9.147676375112406e-41
170.0 500.0 2.0 9.147676375112406e-41
170.0 490.0 4.0 9.147676375112406e-41
170.0 480.0 3.0 9.147676375112406e-41
170.0 470.0 2.0 9.147676375112406e-41
170.0 460.0 2.0 9.147676375112406e-41
170.0 450.0 3.0 9.147676375112406e-41
170.0 440.0 10.0 9.147676375112406e-41
170.0 430.0 13.0 9.147676375112406e-41
170.0 420.0 18.0 9.147676375112406e-41
170.0 410.0 22.0 9.147676375112406e-41
170.0 400.0 21.0 9.147676375112406e-41
170.0 390.0 25.0 9.147676375112406e-41
170.0 380.0 27.0 9.147676375112406e-41
170.0 370.0 28.0 9.147676375112406e-41
170.0 360.0 30.0 9.147676375112406e-41
170.0 350.0 29.0 9.147676375112406e-41
170.0 340.0 30.0 9.147676375112406e-41
170.0 330.0 31.0 9.147676375112406e-41
170.0 320.0 32.0 9.147676375112406e-41
170.0 310.0 33.0 9.147676375112406e-41
170.0 300.0 33.0 9.147676375112406e-41
170.0 290.0 31.0 9.147676375112406e-41
170.0 280.0 32.0 9.147676375112406e-41
170.0 270.0 32.0 9.147676375112406e-41
170.0 260.0 32.0 9.147676375112406e-41
170.0 250.0 30.0 9.147676375112406e-41
170.0 240.0 30.0 9.147676375112406e-41
170.0 230.0 29.0 9.147676375112406e-41
170.0 220.0 27.0 9.147676375112406e-41
170.0 210.0 26.0 9.147676375112406e-41
170.0 200.0 22.0 9.147676375112406e-41
170.0 190.0 18.0 9.147676375112406e-41
170.0 180.0 16.0 9.147676375112406e-41
170.0 170.0 5.0 9.147676375112406e-41
170.0 160.0 2.0 9.147676375112406e-41
180.0 190.0 2.0 9.147676375112406e-41
180.0 200.0 4.0 9.147676375112406e-41
180.0 210.0 10.0 9.147676375112406e-41
180.0 220.0 12.0 9.147676375112406e-41
180.0 230.0 12.0 9.147676375112406e-41
180.0 240.0 15.0 9.147676375112406e-41
180.0 250.0 16.0 9.147676375112406e-41
180.0 260.0 15.0 9.147676375112406e-41
180.0 270.0 16.0 9.147676375112406e-41
180.0 280.0 17.0 9.147676375112406e-41
180.0 290.0 17.0 9.147676375112406e-41
180.0 300.0 17.0 9.147676375112406e-41
180.0 310.0 16.0 9.147676375112406e-41
180.0 320.0 15.0 9.147676375112406e-41
180.0 330.0 14.0 9.147676375112406e-41
180.0 340.0 14.0 9.147676375112406e-41
180.0 350.0 11.0 9.147676375112406e-41
180.0 360.0 9.0 9.147676375112406e-41
180.0 370.0 8.0 9.147676375112406e-41
180.0 380.0 7.0 9.147676375112406e-41
180.0 390.0 4.0 9.147676375112406e-41
180.0 400.0 3.0 9.147676375112406e-41
180.0 410.0 4.0 9.147676375112406e-41
180.0 420.0 2.0 9.147676375112406e-41
180.0 430.0 2.0 9.147676375112406e-41
180.0 450.0 2.0 9.147676375112406e-41
180.0 460.0 3.0 9.147676375112406e-41
180.0 470.0 2.0 9.147676375112406e-41
180.0 480.0 2.0 9.147676375112406e-41
190.0 500.0 2.0 9.147676375112406e-41
190.0 480.0 2.0 9.147676375112406e-41
190.0 460.0 3.0 9.147676375112406e-41
190.0 450.0 4.0 9.147676375112406e-41
190.0 440.0 2.0 9.147676375112406e-41
190.0 430.0 2.0 9.147676375112406e-41
190.0 420.0 4.0 9.147676375112406e-41
190.0 410.0 4.0 9.147676375112406e-41
190.0 400.0 4.0 9.147676375112406e-41
190.0 390.0 4.0 9.147676375112406e-41
190.0 380.0 5.0 9.147676375112406e-41
190.0 370.0 5.0 9.147676375112406e-41
190.0 360.0 4.0 9.147676375112406e-41
190.0 350.0 8.0 9.147676375112406e-41
190.0 340.0 8.0 9.147676375112406e-41
190.0 330.0 7.0 9.147676375112406e-41
190.0 320.0 8.0 9.147676375112406e-41
190.0 310.0 9.0 9.147676375112406e-41
190.0 300.0 9.0 9.147676375112406e-41
190.0 290.0 9.0 9.147676375112406e-41
190.0 280.0 10.0 9.147676375112406e-41
190.0 270.0 10.0 9.147676375112406e-41
190.0 260.0 10.0 9.147676375112406e-41
190.0 250.0 8.0 9.147676375112406e-41
190.0 240.0 9.0 9.147676375112406e-41
190.0 230.0 5.0 9.147676375112406e-41
190.0 220.0 4.0 9.147676375112406e-41
190.0 210.0 2.0 9.147676375112406e-41
190.0 190.0 2.0 9.147676375112406e-41
210.0 430.0 3.0 9.147676375112406e-41
210.0 400.0 2.0 9.147676375112406e-41
210.0 380.0 2.0 9.147676375112406e-41
210.0 330.0 2.0 9.147676375112406e-41
