# .PCD v.7 - Point Cloud Data file format
VERSION .7
FIELDS x y z rgb
SIZE 4 4 4 4
TYPE F F F F
COUNT 1 1 1 1
WIDTH 688
HEIGHT 1
VIEWPOINT 0 0 0 1 0 0 0
POINTS 688
DATA ascii
0.0 15.0 2.0 9.147676375112406e-41
0.0 50.0 4.0 9.147676375112406e-41
0.0 65.0 2.0 9.147676375112406e-41
0.0 70.0 2.0 9.147676375112406e-41
0.0 75.0 3.0 9.147676375112406e-41
0.0 80.0 2.0 9.147676375112406e-41
0.0 85.0 2.0 9.147676375112406e-41
5.0 75.0 4.0 9.147676375112406e-41
5.0 70.0 5.0 9.147676375112406e-41
5.0 65.0 4.0 9.147676375112406e-41
5.0 60.0 4.0 9.147676375112406e-41
5.0 55.0 3.0 9.147676375112406e-41
5.0 50.0 4.0 9.147676375112406e-41
5.0 45.0 3.0 9.147676375112406e-41
5.0 40.0 2.0 9.147676375112406e-41
5.0 35.0 4.0 9.147676375112406e-41
5.0 30.0 3.0 9.147676375112406e-41
5.0 15.0 2.0 9.147676375112406e-41
10.0 20.0 3.0 9.147676375112406e-41
10.0 25.0 2.0 9.147676375112406e-41
10.0 30.0 2.0 9.147676375112406e-41
10.0 35.0 3.0 9.147676375112406e-41
10.0 45.0 2.0 9.147676375112406e-41
10.0 50.0 2.0 9.147676375112406e-41
10.0 55.0 3.0 9.147676375112406e-41
10.0 60.0 3.0 9.147676375112406e-41
10.0 65.0 3.0 9.147676375112406e-41
10.0 70.0 2.0 9.147676375112406e-41
10.0 75.0 2.0 9.147676375112406e-41
10.0 80.0 2.0 9.147676375112406e-41
10.0 90.0 2.0 9.147676375112406e-41
25.0 60.0 3.0 9.147676375112406e-41
30.0 75.0 2.0 9.147676375112406e-41
35.0 60.0 2.0 9.147676375112406e-41
35.0 55.0 4.0 9.147676375112406e-41
35.0 50.0 2.0 9.147676375112406e-41
35.0 45.0 3.0 9.147676375112406e-41
35.0 40.0 2.0 9.147676375112406e-41
35.0 30.0 2.0 9.147676375112406e-41
40.0 30.0 2.0 9.147676375112406e-41
40.0 35.0 3.0 9.147676375112406e-41
40.0 40.0 2.0 9.147676375112406e-41
40.0 45.0 3.0 9.147676375112406e-41
40.0 50.0 3.0 9.147676375112406e-41
40.0 55.0 3.0 9.147676375112406e-41
40.0 60.0 2.0 9.147676375112406e-41
40.0 65.0 4.0 9.147676375112406e-41
40.0 70.0 3.0 9.147676375112406e-41
40.0 75.0 3.0 9.147676375112406e-41
40.0 80.0 2.0 9.147676375112406e-41
40.0 85.0 2.0 9.147676375112406e-41
40.0 170.0 2.0 9.147676375112406e-41
40.0 180.0 3.0 9.147676375112406e-41
40.0 185.0 14.0 9.147676375112406e-41
40.0 190.0 20.0 9.147676375112406e-41
40.0 195.0 21.0 9.147676375112406e-41
40.0 200.0 23.0 9.147676375112406e-41
45.0 200.0 24.0 9.147676375112406e-41
45.0 195.0 30.0 9.147676375112406e-41
45.0 190.0 28.0 9.147676375112406e-41
45.0 185.0 27.0 9.147676375112406e-41
45.0 180.0 27.0 9.147676375112406e-41
45.0 175.0 27.0 9.147676375112406e-41
45.0 170.0 24.0 9.147676375112406e-41
45.0 165.0 20.0 9.147676375112406e-41
45.0 160.0 17.0 9.147676375112406e-41
45.0 155.0 12.0 9.147676375112406e-41
45.0 150.0 6.0 9.147676375112406e-41
45.0 145.0 5.0 9.147676375112406e-41
45.0 140.0 3.0 9.147676375112406e-41
45.0 135.0 7.0 9.147676375112406e-41
45.0 130.0 6.0 9.147676375112406e-41
45.0 125.0 6.0 9.147676375112406e-41
45.0 120.0 7.0 9.147676375112406e-41
45.0 115.0 6.0 9.147676375112406e-41
45.0 110.0 6.0 9.147676375112406e-41
45.0 105.0 5.0 9.147676375112406e-41
45.0 100.0 7.0 9.147676375112406e-41
45.0 95.0 5.0 9.147676375112406e-41
45.0 90.0 6.0 9.147676375112406e-41
45.0 85.0 6.0 9.147676375112406e-41
45.0 80.0 7.0 9.147676375112406e-41
45.0 75.0 6.0 9.147676375112406e-41
45.0 70.0 7.0 9.147676375112406e-41
45.0 65.0 8.0 9.147676375112406e-41
45.0 60.0 7.0 9.147676375112406e-41
45.0 55.0 7.0 9.147676375112406e-41
45.0 50.0 7.0 9.147676375112406e-41
45.0 45.0 8.0 9.147676375112406e-41
45.0 40.0 8.0 9.147676375112406e-41
45.0 35.0 9.0 9.147676375112406e-41
45.0 30.0 8.0 9.147676375112406e-41
45.0 25.0 8.0 9.147676375112406e-41
45.0 20.0 9.0 9.147676375112406e-41
45.0 15.0 8.0 9.147676375112406e-41
45.0 10.0 6.0 9.147676375112406e-41
45.0 5.0 5.0 9.147676375112406e-41
45.0 0.0 5.0 9.147676375112406e-41
50.0 0.0 3.0 9.147676375112406e-41
50.0 5.0 3.0 9.147676375112406e-41
50.0 10.0 4.0 9.147676375112406e-41
50.0 15.0 5.0 9.147676375112406e-41
50.0 20.0 6.0 9.147676375112406e-41
50.0 25.0 6.0 9.147676375112406e-41
50.0 30.0 7.0 9.147676375112406e-41
50.0 35.0 6.0 9.147676375112406e-41
50.0 40.0 6.0 9.147676375112406e-41
50.0 45.0 6.0 9.147676375112406e-41
50.0 50.0 6.0 9.147676375112406e-41
50.0 55.0 6.0 9.147676375112406e-41
50.0 60.0 6.0 9.147676375112406e-41
50.0 65.0 6.0 9.147676375112406e-41
50.0 70.0 5.0 9.147676375112406e-41
50.0 75.0 6.0 9.147676375112406e-41
50.0 80.0 6.0 9.147676375112406e-41
50.0 85.0 7.0 9.147676375112406e-41
50.0 90.0 7.0 9.147676375112406e-41
50.0 95.0 8.0 9.147676375112406e-41
50.0 100.0 8.0 9.147676375112406e-41
50.0 105.0 9.0 9.147676375112406e-41
50.0 110.0 10.0 9.147676375112406e-41
50.0 115.0 12.0 9.147676375112406e-41
50.0 120.0 13.0 9.147676375112406e-41
50.0 125.0 11.0 9.147676375112406e-41
50.0 130.0 14.0 9.147676375112406e-41
50.0 135.0 17.0 9.147676375112406e-41
50.0 140.0 19.0 9.147676375112406e-41
50.0 145.0 20.0 9.147676375112406e-41
50.0 150.0 24.0 9.147676375112406e-41
50.0 155.0 24.0 9.147676375112406e-41
50.0 160.0 27.0 9.147676375112406e-41
50.0 165.0 28.0 9.147676375112406e-41
50.0 170.0 29.0 9.147676375112406e-41
50.0 175.0 31.0 9.147676375112406e-41
50.0 180.0 31.0 9.147676375112406e-41
50.0 185.0 31.0 9.147676375112406e-41
50.0 190.0 31.0 9.147676375112406e-41
50.0 195.0 31.0 9.147676375112406e-41
50.0 200.0 33.0 9.147676375112406e-41
55.0 200.0 32.0 9.147676375112406e-41
55.0 195.0 33.0 9.147676375112406e-41
55.0 190.0 32.0 9.147676375112406e-41
55.0 185.0 34.0 9.147676375112406e-41
55.0 180.0 37.0 9.147676375112406e-41
55.0 175.0 41.0 9.147676375112406e-41
55.0 170.0 41.0 9.147676375112406e-41
55.0 165.0 40.0 9.147676375112406e-41
55.0 160.0 41.0 9.147676375112406e-41
55.0 155.0 41.0 9.147676375112406e-41
55.0 150.0 41.0 9.147676375112406e-41
55.0 145.0 40.0 9.147676375112406e-41
55.0 140.0 41.0 9.147676375112406e-41
55.0 135.0 40.0 9.147676375112406e-41
55.0 130.0 40.0 9.147676375112406e-41
55.0 125.0 40.0 9.147676375112406e-41
55.0 120.0 41.0 9.147676375112406e-41
55.0 115.0 40.0 9.147676375112406e-41
55.0 110.0 40.0 9.147676375112406e-41
55.0 105.0 40.0 9.147676375112406e-41
55.0 100.0 39.0 9.147676375112406e-41
55.0 95.0 40.0 9.147676375112406e-41
55.0 90.0 40.0 9.147676375112406e-41
55.0 85.0 39.0 9.147676375112406e-41
55.0 80.0 39.0 9.147676375112406e-41
55.0 75.0 39.0 9.147676375112406e-41
55.0 70.0 39.0 9.147676375112406e-41
55.0 65.0 38.0 9.147676375112406e-41
55.0 60.0 38.0 9.147676375112406e-41
55.0 55.0 39.0 9.147676375112406e-41
55.0 50.0 38.0 9.147676375112406e-41
55.0 45.0 39.0 9.147676375112406e-41
55.0 40.0 38.0 9.147676375112406e-41
55.0 35.0 36.0 9.147676375112406e-41
55.0 30.0 36.0 9.147676375112406e-41
55.0 25.0 36.0 9.147676375112406e-41
55.0 20.0 34.0 9.147676375112406e-41
55.0 15.0 36.0 9.147676375112406e-41
55.0 10.0 33.0 9.147676375112406e-41
55.0 5.0 34.0 9.147676375112406e-41
55.0 0.0 33.0 9.147676375112406e-41
60.0 0.0 33.0 9.147676375112406e-41
60.0 5.0 34.0 9.147676375112406e-41
60.0 10.0 36.0 9.147676375112406e-41
60.0 15.0 36.0 9.147676375112406e-41
60.0 20.0 36.0 9.147676375112406e-41
60.0 25.0 37.0 9.147676375112406e-41
60.0 30.0 36.0 9.147676375112406e-41
60.0 35.0 37.0 9.147676375112406e-41
60.0 40.0 39.0 9.147676375112406e-41
60.0 45.0 38.0 9.147676375112406e-41
60.0 50.0 38.0 9.147676375112406e-41
60.0 55.0 39.0 9.147676375112406e-41
60.0 60.0 40.0 9.147676375112406e-41
60.0 65.0 39.0 9.147676375112406e-41
60.0 70.0 40.0 9.147676375112406e-41
60.0 75.0 40.0 9.147676375112406e-41
60.0 80.0 41.0 9.147676375112406e-41
60.0 85.0 41.0 9.147676375112406e-41
60.0 90.0 41.0 9.147676375112406e-41
60.0 95.0 41.0 9.147676375112406e-41
60.0 100.0 41.0 9.147676375112406e-41
60.0 105.0 41.0 9.147676375112406e-41
60.0 110.0 39.0 9.147676375112406e-41
60.0 115.0 40.0 9.147676375112406e-41
60.0 120.0 41.0 9.147676375112406e-41
60.0 125.0 40.0 9.147676375112406e-41
60.0 130.0 41.0 9.147676375112406e-41
60.0 135.0 40.0 9.147676375112406e-41
60.0 140.0 42.0 9.147676375112406e-41
60.0 145.0 41.0 9.147676375112406e-41
60.0 150.0 41.0 9.147676375112406e-41
60.0 155.0 41.0 9.147676375112406e-41
60.0 160.0 41.0 9.147676375112406e-41
60.0 165.0 40.0 9.147676375112406e-41
60.0 170.0 42.0 9.147676375112406e-41
60.0 175.0 41.0 9.147676375112406e-41
60.0 180.0 40.0 9.147676375112406e-41
60.0 185.0 42.0 9.147676375112406e-41
60.0 190.0 42.0 9.147676375112406e-41
60.0 195.0 43.0 9.147676375112406e-41
60.0 200.0 41.0 9.147676375112406e-41
65.0 200.0 42.0 9.147676375112406e-41
65.0 195.0 44.0 9.147676375112406e-41
65.0 190.0 43.0 9.147676375112406e-41
65.0 185.0 43.0 9.147676375112406e-41
65.0 180.0 43.0 9.147676375112406e-41
65.0 175.0 44.0 9.147676375112406e-41
65.0 170.0 45.0 9.147676375112406e-41
65.0 165.0 44.0 9.147676375112406e-41
65.0 160.0 44.0 9.147676375112406e-41
65.0 155.0 43.0 9.147676375112406e-41
65.0 150.0 44.0 9.147676375112406e-41
65.0 145.0 43.0 9.147676375112406e-41
65.0 140.0 42.0 9.147676375112406e-41
65.0 135.0 44.0 9.147676375112406e-41
65.0 130.0 44.0 9.147676375112406e-41
65.0 125.0 43.0 9.147676375112406e-41
65.0 120.0 43.0 9.147676375112406e-41
65.0 115.0 42.0 9.147676375112406e-41
65.0 110.0 42.0 9.147676375112406e-41
65.0 105.0 42.0 9.147676375112406e-41
65.0 100.0 41.0 9.147676375112406e-41
65.0 95.0 42.0 9.147676375112406e-41
65.0 90.0 41.0 9.147676375112406e-41
65.0 85.0 42.0 9.147676375112406e-41
65.0 80.0 41.0 9.147676375112406e-41
65.0 75.0 40.0 9.147676375112406e-41
65.0 70.0 40.0 9.147676375112406e-41
65.0 65.0 41.0 9.147676375112406e-41
65.0 60.0 40.0 9.147676375112406e-41
65.0 55.0 39.0 9.147676375112406e-41
65.0 50.0 40.0 9.147676375112406e-41
65.0 45.0 40.0 9.147676375112406e-41
65.0 40.0 39.0 9.147676375112406e-41
65.0 35.0 40.0 9.147676375112406e-41
65.0 30.0 40.0 9.147676375112406e-41
65.0 25.0 39.0 9.147676375112406e-41
65.0 20.0 39.0 9.147676375112406e-41
65.0 15.0 38.0 9.147676375112406e-41
65.0 10.0 38.0 9.147676375112406e-41
65.0 5.0 38.0 9.147676375112406e-41
65.0 0.0 36.0 9.147676375112406e-41
70.0 0.0 36.0 9.147676375112406e-41
70.0 5.0 37.0 9.147676375112406e-41
70.0 10.0 37.0 9.147676375112406e-41
70.0 15.0 38.0 9.147676375112406e-41
70.0 20.0 38.0 9.147676375112406e-41
70.0 25.0 39.0 9.147676375112406e-41
70.0 30.0 40.0 9.147676375112406e-41
70.0 35.0 39.0 9.147676375112406e-41
70.0 40.0 39.0 9.147676375112406e-41
70.0 45.0 39.0 9.147676375112406e-41
70.0 50.0 39.0 9.147676375112406e-41
70.0 55.0 41.0 9.147676375112406e-41
70.0 60.0 40.0 9.147676375112406e-41
70.0 65.0 40.0 9.147676375112406e-41
70.0 70.0 41.0 9.147676375112406e-41
70.0 75.0 40.0 9.147676375112406e-41
70.0 80.0 42.0 9.147676375112406e-41
70.0 85.0 42.0 9.147676375112406e-41
70.0 90.0 41.0 9.147676375112406e-41
70.0 95.0 43.0 9.147676375112406e-41
70.0 100.0 42.0 9.147676375112406e-41
70.0 105.0 43.0 9.147676375112406e-41
70.0 110.0 42.0 9.147676375112406e-41
70.0 115.0 44.0 9.147676375112406e-41
70.0 120.0 42.0 9.147676375112406e-41
70.0 125.0 43.0 9.147676375112406e-41
70.0 130.0 42.0 9.147676375112406e-41
70.0 135.0 45.0 9.147676375112406e-41
70.0 140.0 44.0 9.147676375112406e-41
70.0 145.0 44.0 9.147676375112406e-41
70.0 150.0 43.0 9.147676375112406e-41
70.0 155.0 44.0 9.147676375112406e-41
70.0 160.0 44.0 9.147676375112406e-41
70.0 165.0 44.0 9.147676375112406e-41
70.0 170.0 44.0 9.147676375112406e-41
70.0 175.0 45.0 9.147676375112406e-41
70.0 180.0 44.0 9.147676375112406e-41
70.0 185.0 44.0 9.147676375112406e-41
70.0 190.0 45.0 9.147676375112406e-41
70.0 195.0 44.0 9.147676375112406e-41
70.0 200.0 45.0 9.147676375112406e-41
75.0 200.0 44.0 9.147676375112406e-41
75.0 195.0 45.0 9.147676375112406e-41
75.0 190.0 45.0 9.147676375112406e-41
75.0 185.0 45.0 9.147676375112406e-41
75.0 180.0 44.0 9.147676375112406e-41
75.0 175.0 45.0 9.147676375112406e-41
75.0 170.0 45.0 9.147676375112406e-41
75.0 165.0 44.0 9.147676375112406e-41
75.0 160.0 45.0 9.147676375112406e-41
75.0 155.0 45.0 9.147676375112406e-41
75.0 150.0 44.0 9.147676375112406e-41
75.0 145.0 45.0 9.147676375112406e-41
75.0 140.0 45.0 9.147676375112406e-41
75.0 135.0 45.0 9.147676375112406e-41
75.0 130.0 43.0 9.147676375112406e-41
75.0 125.0 44.0 9.147676375112406e-41
75.0 120.0 44.0 9.147676375112406e-41
75.0 115.0 44.0 9.147676375112406e-41
75.0 110.0 43.0 9.147676375112406e-41
75.0 105.0 44.0 9.147676375112406e-41
75.0 100.0 42.0 9.147676375112406e-41
75.0 95.0 43.0 9.147676375112406e-41
75.0 90.0 43.0 9.147676375112406e-41
75.0 85.0 43.0 9.147676375112406e-41
75.0 80.0 42.0 9.147676375112406e-41
75.0 75.0 42.0 9.147676375112406e-41
75.0 70.0 42.0 9.147676375112406e-41
75.0 65.0 42.0 9.147676375112406e-41
75.0 60.0 42.0 9.147676375112406e-41
75.0 55.0 41.0 9.147676375112406e-41
75.0 50.0 42.0 9.147676375112406e-41
75.0 45.0 41.0 9.147676375112406e-41
75.0 40.0 43.0 9.147676375112406e-41
75.0 35.0 41.0 9.147676375112406e-41
75.0 30.0 40.0 9.147676375112406e-41
75.0 25.0 40.0 9.147676375112406e-41
75.0 20.0 41.0 9.147676375112406e-41
75.0 15.0 39.0 9.147676375112406e-41
75.0 10.0 40.0 9.147676375112406e-41
75.0 5.0 39.0 9.147676375112406e-41
75.0 0.0 39.0 9.147676375112406e-41
80.0 0.0 39.0 9.147676375112406e-41
80.0 5.0 39.0 9.147676375112406e-41
80.0 10.0 40.0 9.147676375112406e-41
80.0 15.0 38.0 9.147676375112406e-41
80.0 20.0 39.0 9.147676375112406e-41
80.0 25.0 40.0 9.147676375112406e-41
80.0 30.0 39.0 9.147676375112406e-41
80.0 35.0 40.0 9.147676375112406e-41
80.0 40.0 41.0 9.147676375112406e-41
80.0 45.0 41.0 9.147676375112406e-41
80.0 50.0 41.0 9.147676375112406e-41
80.0 55.0 42.0 9.147676375112406e-41
80.0 60.0 41.0 9.147676375112406e-41
80.0 65.0 42.0 9.147676375112406e-41
80.0 70.0 43.0 9.147676375112406e-41
80.0 75.0 43.0 9.147676375112406e-41
80.0 80.0 41.0 9.147676375112406e-41
80.0 85.0 42.0 9.147676375112406e-41
80.0 90.0 43.0 9.147676375112406e-41
80.0 95.0 43.0 9.147676375112406e-41
80.0 100.0 43.0 9.147676375112406e-41
80.0 105.0 43.0 9.147676375112406e-41
80.0 110.0 44.0 9.147676375112406e-41
80.0 115.0 44.0 9.147676375112406e-41
80.0 120.0 43.0 9.147676375112406e-41
80.0 125.0 43.0 9.147676375112406e-41
80.0 130.0 45.0 9.147676375112406e-41
80.0 135.0 45.0 9.147676375112406e-41
80.0 140.0 44.0 9.147676375112406e-41
80.0 145.0 45.0 9.147676375112406e-41
80.0 150.0 45.0 9.147676375112406e-41
80.0 155.0 45.0 9.147676375112406e-41
80.0 160.0 46.0 9.147676375112406e-41
80.0 165.0 45.0 9.147676375112406e-41
80.0 170.0 44.0 9.147676375112406e-41
80.0 175.0 45.0 9.147676375112406e-41
80.0 180.0 44.0 9.147676375112406e-41
80.0 185.0 46.0 9.147676375112406e-41
80.0 190.0 45.0 9.147676375112406e-41
80.0 195.0 44.0 9.147676375112406e-41
80.0 200.0 45.0 9.147676375112406e-41
85.0 200.0 45.0 9.147676375112406e-41
85.0 195.0 45.0 9.147676375112406e-41
85.0 190.0 45.0 9.147676375112406e-41
85.0 185.0 43.0 9.147676375112406e-41
85.0 180.0 43.0 9.147676375112406e-41
85.0 175.0 43.0 9.147676375112406e-41
85.0 170.0 44.0 9.147676375112406e-41
85.0 165.0 44.0 9.147676375112406e-41
85.0 160.0 46.0 9.147676375112406e-41
85.0 155.0 45.0 9.147676375112406e-41
85.0 150.0 47.0 9.147676375112406e-41
85.0 145.0 46.0 9.147676375112406e-41
85.0 140.0 47.0 9.147676375112406e-41
85.0 135.0 45.0 9.147676375112406e-41
85.0 130.0 44.0 9.147676375112406e-41
85.0 125.0 46.0 9.147676375112406e-41
85.0 120.0 46.0 9.147676375112406e-41
85.0 115.0 44.0 9.147676375112406e-41
85.0 110.0 45.0 9.147676375112406e-41
85.0 105.0 44.0 9.147676375112406e-41
85.0 100.0 44.0 9.147676375112406e-41
85.0 95.0 44.0 9.147676375112406e-41
85.0 90.0 43.0 9.147676375112406e-41
85.0 85.0 44.0 9.147676375112406e-41
85.0 80.0 44.0 9.147676375112406e-41
85.0 75.0 43.0 9.147676375112406e-41
85.0 70.0 43.0 9.147676375112406e-41
85.0 65.0 44.0 9.147676375112406e-41
85.0 60.0 42.0 9.147676375112406e-41
85.0 55.0 44.0 9.147676375112406e-41
85.0 50.0 43.0 9.147676375112406e-41
85.0 45.0 42.0 9.147676375112406e-41
85.0 40.0 42.0 9.147676375112406e-41
85.0 35.0 42.0 9.147676375112406e-41
85.0 30.0 41.0 9.147676375112406e-41
85.0 25.0 42.0 9.147676375112406e-41
85.0 20.0 42.0 9.147676375112406e-41
85.0 15.0 42.0 9.147676375112406e-41
85.0 10.0 40.0 9.147676375112406e-41
85.0 5.0 39.0 9.147676375112406e-41
85.0 0.0 39.0 9.147676375112406e-41
90.0 0.0 38.0 9.147676375112406e-41
90.0 5.0 40.0 9.147676375112406e-41
90.0 10.0 40.0 9.147676375112406e-41
90.0 15.0 40.0 9.147676375112406e-41
90.0 20.0 40.0 9.147676375112406e-41
90.0 25.0 40.0 9.147676375112406e-41
90.0 30.0 41.0 9.147676375112406e-41
90.0 35.0 42.0 9.147676375112406e-41
90.0 40.0 40.0 9.147676375112406e-41
90.0 45.0 40.0 9.147676375112406e-41
90.0 50.0 42.0 9.147676375112406e-41
90.0 55.0 43.0 9.147676375112406e-41
90.0 60.0 43.0 9.147676375112406e-41
90.0 65.0 43.0 9.147676375112406e-41
90.0 70.0 44.0 9.147676375112406e-41
90.0 75.0 42.0 9.147676375112406e-41
90.0 80.0 43.0 9.147676375112406e-41
90.0 85.0 44.0 9.147676375112406e-41
90.0 90.0 44.0 9.147676375112406e-41
90.0 95.0 45.0 9.147676375112406e-41
90.0 100.0 43.0 9.147676375112406e-41
90.0 105.0 42.0 9.147676375112406e-41
90.0 110.0 44.0 9.147676375112406e-41
90.0 115.0 44.0 9.147676375112406e-41
90.0 120.0 44.0 9.147676375112406e-41
90.0 125.0 46.0 9.147676375112406e-41
90.0 130.0 45.0 9.147676375112406e-41
90.0 135.0 45.0 9.147676375112406e-41
90.0 140.0 45.0 9.147676375112406e-41
90.0 145.0 44.0 9.147676375112406e-41
90.0 150.0 44.0 9.147676375112406e-41
90.0 155.0 43.0 9.147676375112406e-41
90.0 160.0 44.0 9.147676375112406e-41
90.0 165.0 43.0 9.147676375112406e-41
90.0 170.0 43.0 9.147676375112406e-41
90.0 175.0 43.0 9.147676375112406e-41
90.0 180.0 43.0 9.147676375112406e-41
90.0 185.0 42.0 9.147676375112406e-41
90.0 190.0 42.0 9.147676375112406e-41
90.0 195.0 43.0 9.147676375112406e-41
90.0 200.0 44.0 9.147676375112406e-41
95.0 200.0 46.0 9.147676375112406e-41
95.0 195.0 47.0 9.147676375112406e-41
95.0 190.0 46.0 9.147676375112406e-41
95.0 185.0 46.0 9.147676375112406e-41
95.0 180.0 47.0 9.147676375112406e-41
95.0 175.0 46.0 9.147676375112406e-41
95.0 170.0 44.0 9.147676375112406e-41
95.0 165.0 42.0 9.147676375112406e-41
95.0 160.0 42.0 9.147676375112406e-41
95.0 155.0 42.0 9.147676375112406e-41
95.0 150.0 44.0 9.147676375112406e-41
95.0 145.0 43.0 9.147676375112406e-41
95.0 140.0 42.0 9.147676375112406e-41
95.0 135.0 44.0 9.147676375112406e-41
95.0 130.0 42.0 9.147676375112406e-41
95.0 125.0 44.0 9.147676375112406e-41
95.0 120.0 43.0 9.147676375112406e-41
95.0 115.0 46.0 9.147676375112406e-41
95.0 110.0 45.0 9.147676375112406e-41
95.0 105.0 45.0 9.147676375112406e-41
95.0 100.0 45.0 9.147676375112406e-41
95.0 95.0 46.0 9.147676375112406e-41
95.0 90.0 44.0 9.147676375112406e-41
95.0 85.0 44.0 9.147676375112406e-41
95.0 80.0 44.0 9.147676375112406e-41
95.0 75.0 44.0 9.147676375112406e-41
95.0 70.0 45.0 9.147676375112406e-41
95.0 65.0 43.0 9.147676375112406e-41
95.0 60.0 44.0 9.147676375112406e-41
95.0 55.0 44.0 9.147676375112406e-41
95.0 50.0 42.0 9.147676375112406e-41
95.0 45.0 43.0 9.147676375112406e-41
95.0 40.0 42.0 9.147676375112406e-41
95.0 35.0 44.0 9.147676375112406e-41
95.0 30.0 42.0 9.147676375112406e-41
95.0 25.0 42.0 9.147676375112406e-41
95.0 20.0 43.0 9.147676375112406e-41
95.0 15.0 42.0 9.147676375112406e-41
95.0 10.0 41.0 9.147676375112406e-41
95.0 5.0 41.0 9.147676375112406e-41
95.0 0.0 40.0 9.147676375112406e-41
100.0 0.0 39.0 9.147676375112406e-41
100.0 5.0 40.0 9.147676375112406e-41
100.0 10.0 40.0 9.147676375112406e-41
100.0 15.0 41.0 9.147676375112406e-41
100.0 20.0 42.0 9.147676375112406e-41
100.0 25.0 41.0 9.147676375112406e-41
100.0 30.0 43.0 9.147676375112406e-41
100.0 35.0 42.0 9.147676375112406e-41
100.0 40.0 41.0 9.147676375112406e-41
100.0 45.0 41.0 9.147676375112406e-41
100.0 50.0 42.0 9.147676375112406e-41
100.0 55.0 43.0 9.147676375112406e-41
100.0 60.0 42.0 9.147676375112406e-41
100.0 65.0 43.0 9.147676375112406e-41
100.0 70.0 42.0 9.147676375112406e-41
100.0 75.0 43.0 9.147676375112406e-41
100.0 80.0 45.0 9.147676375112406e-41
100.0 85.0 44.0 9.147676375112406e-41
100.0 90.0 44.0 9.147676375112406e-41
100.0 95.0 43.0 9.147676375112406e-41
100.0 100.0 43.0 9.147676375112406e-41
100.0 105.0 42.0 9.147676375112406e-41
100.0 110.0 43.0 9.147676375112406e-41
100.0 115.0 42.0 9.147676375112406e-41
100.0 120.0 42.0 9.147676375112406e-41
100.0 125.0 42.0 9.147676375112406e-41
100.0 130.0 42.0 9.147676375112406e-41
100.0 135.0 42.0 9.147676375112406e-41
100.0 140.0 42.0 9.147676375112406e-41
100.0 145.0 42.0 9.147676375112406e-41
100.0 150.0 45.0 9.147676375112406e-41
100.0 155.0 45.0 9.147676375112406e-41
100.0 160.0 45.0 9.147676375112406e-41
100.0 165.0 46.0 9.147676375112406e-41
100.0 170.0 47.0 9.147676375112406e-41
100.0 175.0 46.0 9.147676375112406e-41
100.0 180.0 47.0 9.147676375112406e-41
100.0 185.0 47.0 9.147676375112406e-41
100.0 190.0 45.0 9.147676375112406e-41
100.0 195.0 46.0 9.147676375112406e-41
100.0 200.0 45.0 9.147676375112406e-41
105.0 200.0 47.0 9.147676375112406e-41
105.0 195.0 48.0 9.147676375112406e-41
105.0 190.0 45.0 9.147676375112406e-41
105.0 185.0 46.0 9.147676375112406e-41
105.0 180.0 47.0 9.147676375112406e-41
105.0 175.0 47.0 9.147676375112406e-41
105.0 170.0 46.0 9.147676375112406e-41
105.0 165.0 46.0 9.147676375112406e-41
105.0 160.0 47.0 9.147676375112406e-41
105.0 155.0 47.0 9.147676375112406e-41
105.0 150.0 46.0 9.147676375112406e-41
105.0 145.0 46.0 9.147676375112406e-41
105.0 140.0 44.0 9.147676375112406e-41
105.0 135.0 43.0 9.147676375112406e-41
105.0 130.0 44.0 9.147676375112406e-41
105.0 125.0 43.0 9.147676375112406e-41
105.0 120.0 42.0 9.147676375112406e-41
105.0 115.0 41.0 9.147676375112406e-41
105.0 110.0 43.0 9.147676375112406e-41
105.0 105.0 42.0 9.147676375112406e-41
105.0 100.0 43.0 9.147676375112406e-41
105.0 95.0 45.0 9.147676375112406e-41
105.0 90.0 44.0 9.147676375112406e-41
105.0 85.0 46.0 9.147676375112406e-41
105.0 80.0 44.0 9.147676375112406e-41
105.0 75.0 45.0 9.147676375112406e-41
105.0 70.0 43.0 9.147676375112406e-41
105.0 65.0 45.0 9.147676375112406e-41
105.0 60.0 43.0 9.147676375112406e-41
105.0 55.0 45.0 9.147676375112406e-41
105.0 50.0 44.0 9.147676375112406e-41
105.0 45.0 42.0 9.147676375112406e-41
105.0 40.0 43.0 9.147676375112406e-41
105.0 35.0 43.0 9.147676375112406e-41
105.0 30.0 41.0 9.147676375112406e-41
105.0 25.0 42.0 9.147676375112406e-41
105.0 20.0 42.0 9.147676375112406e-41
105.0 15.0 42.0 9.147676375112406e-41
105.0 10.0 41.0 9.147676375112406e-41
105.0 5.0 41.0 9.147676375112406e-41
105.0 0.0 40.0 9.147676375112406e-41
110.0 0.0 40.0 9.147676375112406e-41
110.0 5.0 41.0 9.147676375112406e-41
110.0 10.0 40.0 9.147676375112406e-41
110.0 15.0 40.0 9.147676375112406e-41
110.0 20.0 42.0 9.147676375112406e-41
110.0 25.0 42.0 9.147676375112406e-41
110.0 30.0 41.0 9.147676375112406e-41
110.0 35.0 41.0 9.147676375112406e-41
110.0 40.0 40.0 9.147676375112406e-41
110.0 45.0 39.0 9.147676375112406e-41
110.0 50.0 41.0 9.147676375112406e-41
110.0 55.0 41.0 9.147676375112406e-41
110.0 60.0 42.0 9.147676375112406e-41
110.0 65.0 42.0 9.147676375112406e-41
110.0 70.0 42.0 9.147676375112406e-41
110.0 75.0 41.0 9.147676375112406e-41
110.0 80.0 42.0 9.147676375112406e-41
110.0 85.0 41.0 9.147676375112406e-41
110.0 90.0 41.0 9.147676375112406e-41
110.0 95.0 41.0 9.147676375112406e-41
110.0 100.0 42.0 9.147676375112406e-41
110.0 105.0 43.0 9.147676375112406e-41
110.0 110.0 45.0 9.147676375112406e-41
110.0 115.0 42.0 9.147676375112406e-41
110.0 120.0 45.0 9.147676375112406e-41
110.0 125.0 47.0 9.147676375112406e-41
110.0 130.0 45.0 9.147676375112406e-41
110.0 135.0 47.0 9.147676375112406e-41
110.0 140.0 45.0 9.147676375112406e-41
110.0 145.0 46.0 9.147676375112406e-41
110.0 150.0 47.0 9.147676375112406e-41
110.0 155.0 46.0 9.147676375112406e-41
110.0 160.0 46.0 9.147676375112406e-41
110.0 165.0 47.0 9.147676375112406e-41
110.0 170.0 46.0 9.147676375112406e-41
110.0 175.0 46.0 9.147676375112406e-41
110.0 180.0 46.0 9.147676375112406e-41
110.0 185.0 45.0 9.147676375112406e-41
110.0 190.0 46.0 9.147676375112406e-41
110.0 195.0 46.0 9.147676375112406e-41
110.0 200.0 45.0 9.147676375112406e-41
115.0 200.0 46.0 9.147676375112406e-41
115.0 195.0 48.0 9.147676375112406e-41
115.0 190.0 46.0 9.147676375112406e-41
115.0 185.0 47.0 9.147676375112406e-41
115.0 180.0 45.0 9.147676375112406e-41
115.0 175.0 46.0 9.147676375112406e-41
115.0 170.0 46.0 9.147676375112406e-41
115.0 165.0 44.0 9.147676375112406e-41
115.0 160.0 45.0 9.147676375112406e-41
115.0 155.0 47.0 9.147676375112406e-41
115.0 150.0 45.0 9.147676375112406e-41
115.0 145.0 46.0 9.147676375112406e-41
115.0 140.0 46.0 9.147676375112406e-41
115.0 135.0 46.0 9.147676375112406e-41
115.0 130.0 47.0 9.147676375112406e-41
115.0 125.0 46.0 9.147676375112406e-41
115.0 120.0 47.0 9.147676375112406e-41
115.0 115.0 45.0 9.147676375112406e-41
115.0 110.0 46.0 9.147676375112406e-41
115.0 105.0 46.0 9.147676375112406e-41
115.0 100.0 45.0 9.147676375112406e-41
115.0 95.0 46.0 9.147676375112406e-41
115.0 90.0 44.0 9.147676375112406e-41
115.0 85.0 43.0 9.147676375112406e-41
115.0 80.0 42.0 9.147676375112406e-41
115.0 75.0 42.0 9.147676375112406e-41
115.0 70.0 42.0 9.147676375112406e-41
115.0 65.0 42.0 9.147676375112406e-41
115.0 60.0 41.0 9.147676375112406e-41
115.0 55.0 41.0 9.147676375112406e-41
115.0 50.0 41.0 9.147676375112406e-41
115.0 45.0 41.0 9.147676375112406e-41
115.0 40.0 41.0 9.147676375112406e-41
115.0 35.0 40.0 9.147676375112406e-41
115.0 30.0 40.0 9.147676375112406e-41
115.0 25.0 40.0 9.147676375112406e-41
115.0 20.0 41.0 9.147676375112406e-41
115.0 15.0 42.0 9.147676375112406e-41
115.0 10.0 43.0 9.147676375112406e-41
115.0 5.0 40.0 9.147676375112406e-41
115.0 0.0 40.0 9.147676375112406e-41
120.0 0.0 40.0 9.147676375112406e-41
120.0 5.0 40.0 9.147676375112406e-41
120.0 10.0 40.0 9.147676375112406e-41
120.0 15.0 39.0 9.147676375112406e-41
120.0 20.0 40.0 9.147676375112406e-41
120.0 25.0 39.0 9.147676375112406e-41
120.0 30.0 39.0 9.147676375112406e-41
120.0 35.0 40.0 9.147676375112406e-41
120.0 40.0 39.0 9.147676375112406e-41
120.0 45.0 39.0 9.147676375112406e-41
120.0 50.0 39.0 9.147676375112406e-41
120.0 55.0 40.0 9.147676375112406e-41
120.0 60.0 41.0 9.147676375112406e-41
120.0 65.0 41.0 9.147676375112406e-41
120.0 70.0 41.0 9.147676375112406e-41
120.0 75.0 41.0 9.147676375112406e-41
