# .PCD v.7 - Point Cloud Data file format
VERSION .7
FIELDS x y z rgb
SIZE 4 4 4 4
TYPE F F F F
COUNT 1 1 1 1
WIDTH 525
HEIGHT 1
VIEWPOINT 0 0 0 1 0 0 0
POINTS 525
DATA ascii
0.0 200.0 2.0 9.147676375112406e-41
0.0 220.0 2.0 9.147676375112406e-41
0.0 250.0 2.0 9.147676375112406e-41
0.0 260.0 3.0 9.147676375112406e-41
0.0 280.0 2.0 9.147676375112406e-41
0.0 290.0 3.0 9.147676375112406e-41
0.0 300.0 3.0 9.147676375112406e-41
0.0 310.0 2.0 9.147676375112406e-41
0.0 320.0 3.0 9.147676375112406e-41
0.0 330.0 2.0 9.147676375112406e-41
0.0 340.0 3.0 9.147676375112406e-41
0.0 350.0 3.0 9.147676375112406e-41
0.0 360.0 2.0 9.147676375112406e-41
0.0 370.0 3.0 9.147676375112406e-41
0.0 380.0 2.0 9.147676375112406e-41
0.0 390.0 2.0 9.147676375112406e-41
0.0 400.0 2.0 9.147676375112406e-41
0.0 410.0 2.0 9.147676375112406e-41
0.0 420.0 2.0 9.147676375112406e-41
0.0 430.0 3.0 9.147676375112406e-41
0.0 440.0 3.0 9.147676375112406e-41
0.0 450.0 2.0 9.147676375112406e-41
0.0 460.0 2.0 9.147676375112406e-41
0.0 470.0 3.0 9.147676375112406e-41
0.0 490.0 3.0 9.147676375112406e-41
0.0 500.0 3.0 9.147676375112406e-41
10.0 500.0 2.0 9.147676375112406e-41
10.0 480.0 2.0 9.147676375112406e-41
10.0 470.0 2.0 9.147676375112406e-41
10.0 460.0 2.0 9.147676375112406e-41
10.0 450.0 2.0 9.147676375112406e-41
10.0 440.0 2.0 9.147676375112406e-41
10.0 430.0 2.0 9.147676375112406e-41
10.0 420.0 2.0 9.147676375112406e-41
10.0 410.0 2.0 9.147676375112406e-41
10.0 400.0 3.0 9.147676375112406e-41
10.0 390.0 2.0 9.147676375112406e-41
10.0 380.0 2.0 9.147676375112406e-41
10.0 350.0 3.0 9.147676375112406e-41
10.0 330.0 2.0 9.147676375112406e-41
10.0 310.0 2.0 9.147676375112406e-41
10.0 270.0 2.0 9.147676375112406e-41
10.0 200.0 2.0 9.147676375112406e-41
20.0 380.0 2.0 9.147676375112406e-41
20.0 390.0 2.0 9.147676375112406e-41
20.0 400.0 2.0 9.147676375112406e-41
20.0 410.0 2.0 9.147676375112406e-41
20.0 430.0 2.0 9.147676375112406e-41
20.0 460.0 2.0 9.147676375112406e-41
20.0 470.0 2.0 9.147676375112406e-41
20.0 480.0 2.0 9.147676375112406e-41
20.0 490.0 2.0 9.147676375112406e-41
30.0 480.0 2.0 9.147676375112406e-41
30.0 470.0 2.0 9.147676375112406e-41
30.0 460.0 2.0 9.147676375112406e-41
30.0 450.0 3.0 9.147676375112406e-41
30.0 440.0 2.0 9.147676375112406e-41
30.0 430.0 2.0 9.147676375112406e-41
30.0 420.0 2.0 9.147676375112406e-41
30.0 410.0 2.0 9.147676375112406e-41
30.0 400.0 3.0 9.147676375112406e-41
30.0 380.0 3.0 9.147676375112406e-41
30.0 370.0 2.0 9.147676375112406e-41
30.0 350.0 2.0 9.147676375112406e-41
30.0 330.0 2.0 9.147676375112406e-41
30.0 310.0 2.0 9.147676375112406e-41
30.0 300.0 2.0 9.147676375112406e-41
30.0 290.0 2.0 9.147676375112406e-41
30.0 230.0 2.0 9.147676375112406e-41
40.0 420.0 2.0 9.147676375112406e-41
40.0 430.0 2.0 9.147676375112406e-41
40.0 450.0 2.0 9.147676375112406e-41
40.0 460.0 2.0 9.147676375112406e-41
50.0 490.0 2.0 9.147676375112406e-41
50.0 460.0 3.0 9.147676375112406e-41
50.0 450.0 2.0 9.147676375112406e-41
50.0 440.0 3.0 9.147676375112406e-41
50.0 430.0 3.0 9.147676375112406e-41
50.0 420.0 2.0 9.147676375112406e-41
50.0 410.0 3.0 9.147676375112406e-41
50.0 400.0 2.0 9.147676375112406e-41
50.0 390.0 2.0 9.147676375112406e-41
50.0 380.0 2.0 9.147676375112406e-41
50.0 370.0 2.0 9.147676375112406e-41
50.0 360.0 2.0 9.147676375112406e-41
50.0 340.0 3.0 9.147676375112406e-41
50.0 330.0 3.0 9.147676375112406e-41
50.0 300.0 2.0 9.147676375112406e-41
50.0 290.0 3.0 9.147676375112406e-41
50.0 270.0 2.0 9.147676375112406e-41
50.0 260.0 3.0 9.147676375112406e-41
50.0 250.0 2.0 9.147676375112406e-41
50.0 240.0 2.0 9.147676375112406e-41
50.0 230.0 2.0 9.147676375112406e-41
60.0 210.0 3.0 9.147676375112406e-41
60.0 240.0 5.0 9.147676375112406e-41
60.0 250.0 5.0 9.147676375112406e-41
60.0 260.0 3.0 9.147676375112406e-41
60.0 270.0 7.0 9.147676375112406e-41
60.0 280.0 4.0 9.147676375112406e-41
60.0 290.0 5.0 9.147676375112406e-41
60.0 300.0 8.0 9.147676375112406e-41
60.0 310.0 9.0 9.147676375112406e-41
60.0 320.0 9.0 9.147676375112406e-41
60.0 330.0 11.0 9.147676375112406e-41
60.0 340.0 12.0 9.147676375112406e-41
60.0 350.0 14.0 9.147676375112406e-41
60.0 360.0 15.0 9.147676375112406e-41
60.0 370.0 15.0 9.147676375112406e-41
60.0 380.0 16.0 9.147676375112406e-41
60.0 390.0 19.0 9.147676375112406e-41
60.0 400.0 20.0 9.147676375112406e-41
60.0 410.0 20.0 9.147676375112406e-41
60.0 420.0 20.0 9.147676375112406e-41
60.0 430.0 20.0 9.147676375112406e-41
60.0 440.0 20.0 9.147676375112406e-41
60.0 450.0 21.0 9.147676375112406e-41
60.0 460.0 21.0 9.147676375112406e-41
60.0 470.0 19.0 9.147676375112406e-41
60.0 480.0 18.0 9.147676375112406e-41
60.0 490.0 17.0 9.147676375112406e-41
60.0 500.0 18.0 9.147676375112406e-41
70.0 500.0 16.0 9.147676375112406e-41
70.0 490.0 21.0 9.147676375112406e-41
70.0 480.0 24.0 9.147676375112406e-41
70.0 470.0 24.0 9.147676375112406e-41
70.0 460.0 25.0 9.147676375112406e-41
70.0 450.0 26.0 9.147676375112406e-41
70.0 440.0 26.0 9.147676375112406e-41
70.0 430.0 26.0 9.147676375112406e-41
70.0 420.0 27.0 9.147676375112406e-41
70.0 410.0 26.0 9.147676375112406e-41
70.0 400.0 28.0 9.147676375112406e-41
70.0 390.0 27.0 9.147676375112406e-41
70.0 380.0 26.0 9.147676375112406e-41
70.0 370.0 26.0 9.147676375112406e-41
70.0 360.0 27.0 9.147676375112406e-41
70.0 350.0 27.0 9.147676375112406e-41
70.0 340.0 26.0 9.147676375112406e-41
70.0 330.0 26.0 9.147676375112406e-41
70.0 320.0 26.0 9.147676375112406e-41
70.0 310.0 25.0 9.147676375112406e-41
70.0 300.0 25.0 9.147676375112406e-41
70.0 290.0 25.0 9.147676375112406e-41
70.0 280.0 22.0 9.147676375112406e-41
70.0 270.0 24.0 9.147676375112406e-41
70.0 260.0 24.0 9.147676375112406e-41
70.0 250.0 21.0 9.147676375112406e-41
70.0 240.0 20.0 9.147676375112406e-41
70.0 230.0 19.0 9.147676375112406e-41
70.0 220.0 16.0 9.147676375112406e-41
70.0 210.0 7.0 9.147676375112406e-41
70.0 200.0 5.0 9.147676375112406e-41
70.0 190.0 4.0 9.147676375112406e-41
70.0 180.0 2.0 9.147676375112406e-41
80.0 190.0 3.0 9.147676375112406e-41
80.0 200.0 5.0 9.147676375112406e-41
80.0 210.0 10.0 9.147676375112406e-41
80.0 220.0 16.0 9.147676375112406e-41
80.0 230.0 18.0 9.147676375112406e-41
80.0 240.0 19.0 9.147676375112406e-41
80.0 250.0 21.0 9.147676375112406e-41
80.0 260.0 21.0 9.147676375112406e-41
80.0 270.0 21.0 9.147676375112406e-41
80.0 280.0 24.0 9.147676375112406e-41
80.0 290.0 25.0 9.147676375112406e-41
80.0 300.0 22.0 9.147676375112406e-41
80.0 310.0 24.0 9.147676375112406e-41
80.0 320.0 21.0 9.147676375112406e-41
80.0 330.0 24.0 9.147676375112406e-41
80.0 340.0 25.0 9.147676375112406e-41
80.0 350.0 25.0 9.147676375112406e-41
80.0 360.0 26.0 9.147676375112406e-41
80.0 370.0 26.0 9.147676375112406e-41
80.0 380.0 27.0 9.147676375112406e-41
80.0 390.0 26.0 9.147676375112406e-41
80.0 400.0 26.0 9.147676375112406e-41
80.0 410.0 26.0 9.147676375112406e-41
80.0 420.0 26.0 9.147676375112406e-41
80.0 430.0 25.0 9.147676375112406e-41
80.0 440.0 26.0 9.147676375112406e-41
80.0 450.0 25.0 9.147676375112406e-41
80.0 460.0 25.0 9.147676375112406e-41
80.0 470.0 25.0 9.147676375112406e-41
80.0 480.0 22.0 9.147676375112406e-41
80.0 490.0 22.0 9.147676375112406e-41
80.0 500.0 21.0 9.147676375112406e-41
90.0 500.0 21.0 9.147676375112406e-41
90.0 490.0 22.0 9.147676375112406e-41
90.0 480.0 24.0 9.147676375112406e-41
90.0 470.0 25.0 9.147676375112406e-41
90.0 460.0 26.0 9.147676375112406e-41
90.0 450.0 26.0 9.147676375112406e-41
90.0 440.0 26.0 9.147676375112406e-41
90.0 430.0 26.0 9.147676375112406e-41
90.0 420.0 26.0 9.147676375112406e-41
90.0 410.0 26.0 9.147676375112406e-41
90.0 400.0 27.0 9.147676375112406e-41
90.0 390.0 26.0 9.147676375112406e-41
90.0 380.0 26.0 9.147676375112406e-41
90.0 370.0 25.0 9.147676375112406e-41
90.0 360.0 26.0 9.147676375112406e-41
90.0 350.0 26.0 9.147676375112406e-41
90.0 340.0 25.0 9.147676375112406e-41
90.0 330.0 24.0 9.147676375112406e-41
90.0 320.0 25.0 9.147676375112406e-41
90.0 310.0 24.0 9.147676375112406e-41
90.0 300.0 24.0 9.147676375112406e-41
90.0 290.0 24.0 9.147676375112406e-41
90.0 280.0 24.0 9.147676375112406e-41
90.0 270.0 25.0 9.147676375112406e-41
90.0 260.0 25.0 9.147676375112406e-41
90.0 250.0 21.0 9.147676375112406e-41
90.0 240.0 21.0 9.147676375112406e-41
90.0 230.0 19.0 9.147676375112406e-41
90.0 220.0 16.0 9.147676375112406e-41
90.0 210.0 11.0 9.147676375112406e-41
90.0 200.0 7.0 9.147676375112406e-41
90.0 190.0 4.0 9.147676375112406e-41
90.0 170.0 2.0 9.147676375112406e-41
100.0 190.0 4.0 9.147676375112406e-41
100.0 200.0 12.0 9.147676375112406e-41
100.0 210.0 10.0 9.147676375112406e-41
100.0 220.0 13.0 9.147676375112406e-41
100.0 230.0 17.0 9.147676375112406e-41
100.0 240.0 20.0 9.147676375112406e-41
100.0 250.0 21.0 9.147676375112406e-41
100.0 260.0 21.0 9.147676375112406e-41
100.0 270.0 21.0 9.147676375112406e-41
100.0 280.0 22.0 9.147676375112406e-41
100.0 290.0 25.0 9.147676375112406e-41
100.0 300.0 22.0 9.147676375112406e-41
100.0 310.0 25.0 9.147676375112406e-41
100.0 320.0 24.0 9.147676375112406e-41
100.0 330.0 24.0 9.147676375112406e-41
100.0 340.0 24.0 9.147676375112406e-41
100.0 350.0 24.0 9.147676375112406e-41
100.0 360.0 25.0 9.147676375112406e-41
100.0 370.0 25.0 9.147676375112406e-41
100.0 380.0 25.0 9.147676375112406e-41
100.0 390.0 25.0 9.147676375112406e-41
100.0 400.0 25.0 9.147676375112406e-41
100.0 410.0 25.0 9.147676375112406e-41
100.0 420.0 24.0 9.147676375112406e-41
100.0 430.0 24.0 9.147676375112406e-41
100.0 440.0 21.0 9.147676375112406e-41
100.0 450.0 24.0 9.147676375112406e-41
100.0 460.0 24.0 9.147676375112406e-41
100.0 470.0 25.0 9.147676375112406e-41
100.0 480.0 24.0 9.147676375112406e-41
100.0 490.0 24.0 9.147676375112406e-41
100.0 500.0 22.0 9.147676375112406e-41
110.0 500.0 24.0 9.147676375112406e-41
110.0 490.0 22.0 9.147676375112406e-41
110.0 480.0 22.0 9.147676375112406e-41
110.0 470.0 24.0 9.147676375112406e-41
110.0 460.0 25.0 9.147676375112406e-41
110.0 450.0 25.0 9.147676375112406e-41
110.0 440.0 25.0 9.147676375112406e-41
110.0 430.0 25.0 9.147676375112406e-41
110.0 420.0 25.0 9.147676375112406e-41
110.0 410.0 26.0 9.147676375112406e-41
110.0 400.0 25.0 9.147676375112406e-41
110.0 390.0 26.0 9.147676375112406e-41
110.0 380.0 26.0 9.147676375112406e-41
110.0 370.0 26.0 9.147676375112406e-41
110.0 360.0 26.0 9.147676375112406e-41
110.0 350.0 25.0 9.147676375112406e-41
110.0 340.0 26.0 9.147676375112406e-41
110.0 330.0 25.0 9.147676375112406e-41
110.0 320.0 25.0 9.147676375112406e-41
110.0 310.0 24.0 9.147676375112406e-41
110.0 300.0 25.0 9.147676375112406e-41
110.0 290.0 24.0 9.147676375112406e-41
110.0 280.0 24.0 9.147676375112406e-41
110.0 270.0 22.0 9.147676375112406e-41
110.0 260.0 24.0 9.147676375112406e-41
110.0 250.0 22.0 9.147676375112406e-41
110.0 240.0 19.0 9.147676375112406e-41
110.0 230.0 15.0 9.147676375112406e-41
110.0 220.0 9.0 9.147676375112406e-41
110.0 210.0 7.0 9.147676375112406e-41
110.0 200.0 8.0 9.147676375112406e-41
110.0 190.0 3.0 9.147676375112406e-41
120.0 200.0 4.0 9.147676375112406e-41
120.0 210.0 10.0 9.147676375112406e-41
120.0 220.0 13.0 9.147676375112406e-41
120.0 230.0 18.0 9.147676375112406e-41
120.0 240.0 21.0 9.147676375112406e-41
120.0 250.0 21.0 9.147676375112406e-41
120.0 260.0 22.0 9.147676375112406e-41
120.0 270.0 22.0 9.147676375112406e-41
120.0 280.0 24.0 9.147676375112406e-41
120.0 290.0 24.0 9.147676375112406e-41
120.0 300.0 24.0 9.147676375112406e-41
120.0 310.0 24.0 9.147676375112406e-41
120.0 320.0 25.0 9.147676375112406e-41
120.0 330.0 25.0 9.147676375112406e-41
120.0 340.0 25.0 9.147676375112406e-41
120.0 350.0 25.0 9.147676375112406e-41
120.0 360.0 25.0 9.147676375112406e-41
120.0 370.0 26.0 9.147676375112406e-41
120.0 380.0 27.0 9.147676375112406e-41
120.0 390.0 26.0 9.147676375112406e-41
120.0 400.0 27.0 9.147676375112406e-41
120.0 410.0 26.0 9.147676375112406e-41
120.0 420.0 27.0 9.147676375112406e-41
120.0 430.0 28.0 9.147676375112406e-41
120.0 440.0 26.0 9.147676375112406e-41
120.0 450.0 26.0 9.147676375112406e-41
120.0 460.0 25.0 9.147676375112406e-41
120.0 470.0 25.0 9.147676375112406e-41
120.0 480.0 24.0 9.147676375112406e-41
120.0 490.0 21.0 9.147676375112406e-41
120.0 500.0 22.0 9.147676375112406e-41
130.0 500.0 22.0 9.147676375112406e-41
130.0 490.0 22.0 9.147676375112406e-41
130.0 480.0 24.0 9.147676375112406e-41
130.0 470.0 25.0 9.147676375112406e-41
130.0 460.0 26.0 9.147676375112406e-41
130.0 450.0 27.0 9.147676375112406e-41
130.0 440.0 26.0 9.147676375112406e-41
130.0 430.0 27.0 9.147676375112406e-41
130.0 420.0 26.0 9.147676375112406e-41
130.0 410.0 27.0 9.147676375112406e-41
130.0 400.0 27.0 9.147676375112406e-41
130.0 390.0 27.0 9.147676375112406e-41
130.0 380.0 28.0 9.147676375112406e-41
130.0 370.0 28.0 9.147676375112406e-41
130.0 360.0 27.0 9.147676375112406e-41
130.0 350.0 26.0 9.147676375112406e-41
130.0 340.0 25.0 9.147676375112406e-41
130.0 330.0 26.0 9.147676375112406e-41
130.0 320.0 26.0 9.147676375112406e-41
130.0 310.0 25.0 9.147676375112406e-41
130.0 300.0 26.0 9.147676375112406e-41
130.0 290.0 25.0 9.147676375112406e-41
130.0 280.0 25.0 9.147676375112406e-41
130.0 270.0 25.0 9.147676375112406e-41
130.0 260.0 25.0 9.147676375112406e-41
130.0 250.0 24.0 9.147676375112406e-41
130.0 240.0 21.0 9.147676375112406e-41
130.0 230.0 19.0 9.147676375112406e-41
130.0 220.0 15.0 9.147676375112406e-41
130.0 210.0 8.0 9.147676375112406e-41
130.0 200.0 5.0 9.147676375112406e-41
130.0 190.0 2.0 9.147676375112406e-41
140.0 200.0 4.0 9.147676375112406e-41
140.0 210.0 7.0 9.147676375112406e-41
140.0 220.0 13.0 9.147676375112406e-41
140.0 230.0 17.0 9.147676375112406e-41
140.0 240.0 20.0 9.147676375112406e-41
140.0 250.0 22.0 9.147676375112406e-41
140.0 260.0 21.0 9.147676375112406e-41
140.0 270.0 22.0 9.147676375112406e-41
140.0 280.0 24.0 9.147676375112406e-41
140.0 290.0 24.0 9.147676375112406e-41
140.0 300.0 24.0 9.147676375112406e-41
140.0 310.0 25.0 9.147676375112406e-41
140.0 320.0 25.0 9.147676375112406e-41
140.0 330.0 24.0 9.147676375112406e-41
140.0 340.0 26.0 9.147676375112406e-41
140.0 350.0 25.0 9.147676375112406e-41
140.0 360.0 24.0 9.147676375112406e-41
140.0 370.0 25.0 9.147676375112406e-41
140.0 380.0 25.0 9.147676375112406e-41
140.0 390.0 24.0 9.147676375112406e-41
140.0 400.0 24.0 9.147676375112406e-41
140.0 410.0 25.0 9.147676375112406e-41
140.0 420.0 25.0 9.147676375112406e-41
140.0 430.0 25.0 9.147676375112406e-41
140.0 440.0 24.0 9.147676375112406e-41
140.0 450.0 24.0 9.147676375112406e-41
140.0 460.0 22.0 9.147676375112406e-41
140.0 470.0 20.0 9.147676375112406e-41
140.0 480.0 18.0 9.147676375112406e-41
140.0 490.0 17.0 9.147676375112406e-41
140.0 500.0 14.0 9.147676375112406e-41
150.0 500.0 16.0 9.147676375112406e-41
150.0 490.0 5.0 9.147676375112406e-41
150.0 480.0 5.0 9.147676375112406e-41
150.0 470.0 5.0 9.147676375112406e-41
150.0 460.0 9.0 9.147676375112406e-41
150.0 450.0 8.0 9.147676375112406e-41
150.0 440.0 9.0 9.147676375112406e-41
150.0 430.0 9.0 9.147676375112406e-41
150.0 420.0 10.0 9.147676375112406e-41
150.0 410.0 10.0 9.147676375112406e-41
150.0 400.0 10.0 9.147676375112406e-41
150.0 390.0 11.0 9.147676375112406e-41
150.0 380.0 12.0 9.147676375112406e-41
150.0 370.0 13.0 9.147676375112406e-41
150.0 360.0 13.0 9.147676375112406e-41
150.0 350.0 13.0 9.147676375112406e-41
150.0 340.0 13.0 9.147676375112406e-41
150.0 330.0 15.0 9.147676375112406e-41
150.0 320.0 15.0 9.147676375112406e-41
150.0 310.0 16.0 9.147676375112406e-41
150.0 300.0 16.0 9.147676375112406e-41
150.0 290.0 17.0 9.147676375112406e-41
150.0 280.0 17.0 9.147676375112406e-41
150.0 270.0 18.0 9.147676375112406e-41
150.0 260.0 17.0 9.147676375112406e-41
150.0 250.0 18.0 9.147676375112406e-41
150.0 240.0 18.0 9.147676375112406e-41
150.0 230.0 11.0 9.147676375112406e-41
150.0 220.0 10.0 9.147676375112406e-41
150.0 210.0 4.0 9.147676375112406e-41
150.0 200.0 3.0 9.147676375112406e-41
150.0 190.0 2.0 9.147676375112406e-41
150.0 180.0 2.0 9.147676375112406e-41
160.0 220.0 2.0 9.147676375112406e-41
160.0 230.0 2.0 9.147676375112406e-41
160.0 250.0 3.0 9.147676375112406e-41
160.0 260.0 3.0 9.147676375112406e-41
160.0 270.0 2.0 9.147676375112406e-41
160.0 280.0 4.0 9.147676375112406e-41
160.0 290.0 4.0 9.147676375112406e-41
160.0 300.0 2.0 9.147676375112406e-41
160.0 310.0 3.0 9.147676375112406e-41
160.0 320.0 3.0 9.147676375112406e-41
160.0 330.0 3.0 9.147676375112406e-41
160.0 340.0 4.0 9.147676375112406e-41
160.0 350.0 4.0 9.147676375112406e-41
160.0 360.0 3.0 9.147676375112406e-41
160.0 370.0 3.0 9.147676375112406e-41
160.0 380.0 3.0 9.147676375112406e-41
160.0 390.0 2.0 9.147676375112406e-41
160.0 400.0 2.0 9.147676375112406e-41
160.0 410.0 2.0 9.147676375112406e-41
160.0 420.0 2.0 9.147676375112406e-41
160.0 430.0 3.0 9.147676375112406e-41
160.0 440.0 3.0 9.147676375112406e-41
160.0 450.0 3.0 9.147676375112406e-41
160.0 460.0 3.0 9.147676375112406e-41
160.0 470.0 4.0 9.147676375112406e-41
160.0 480.0 2.0 9.147676375112406e-41
160.0 490.0 4.0 9.147676375112406e-41
160.0 500.0 3.0 9.147676375112406e-41
170.0 500.0 3.0 9.147676375112406e-41
170.0 490.0 2.0 9.147676375112406e-41
170.0 480.0 3.0 9.147676375112406e-41
170.0 470.0 3.0 9.147676375112406e-41
170.0 460.0 4.0 9.147676375112406e-41
170.0 450.0 3.0 9.147676375112406e-41
170.0 440.0 3.0 9.147676375112406e-41
170.0 430.0 3.0 9.147676375112406e-41
170.0 420.0 4.0 9.147676375112406e-41
170.0 410.0 4.0 9.147676375112406e-41
170.0 400.0 3.0 9.147676375112406e-41
170.0 390.0 4.0 9.147676375112406e-41
170.0 380.0 3.0 9.147676375112406e-41
170.0 370.0 2.0 9.147676375112406e-41
170.0 360.0 3.0 9.147676375112406e-41
170.0 350.0 3.0 9.147676375112406e-41
170.0 340.0 3.0 9.147676375112406e-41
170.0 330.0 3.0 9.147676375112406e-41
170.0 320.0 2.0 9.147676375112406e-41
170.0 310.0 3.0 9.147676375112406e-41
170.0 300.0 3.0 9.147676375112406e-41
170.0 290.0 2.0 9.147676375112406e-41
170.0 280.0 2.0 9.147676375112406e-41
170.0 270.0 2.0 9.147676375112406e-41
170.0 260.0 2.0 9.147676375112406e-41
170.0 160.0 3.0 9.147676375112406e-41
170.0 100.0 2.0 9.147676375112406e-41
180.0 230.0 2.0 9.147676375112406e-41
180.0 250.0 2.0 9.147676375112406e-41
180.0 300.0 2.0 9.147676375112406e-41
180.0 310.0 2.0 9.147676375112406e-41
180.0 320.0 2.0 9.147676375112406e-41
180.0 330.0 2.0 9.147676375112406e-41
180.0 340.0 2.0 9.147676375112406e-41
180.0 350.0 2.0 9.147676375112406e-41
180.0 360.0 3.0 9.147676375112406e-41
180.0 370.0 3.0 9.147676375112406e-41
180.0 380.0 2.0 9.147676375112406e-41
180.0 390.0 2.0 9.147676375112406e-41
180.0 400.0 3.0 9.147676375112406e-41
180.0 410.0 3.0 9.147676375112406e-41
180.0 420.0 2.0 9.147676375112406e-41
180.0 430.0 2.0 9.147676375112406e-41
180.0 440.0 3.0 9.147676375112406e-41
180.0 450.0 3.0 9.147676375112406e-41
180.0 470.0 4.0 9.147676375112406e-41
180.0 480.0 3.0 9.147676375112406e-41
180.0 490.0 2.0 9.147676375112406e-41
180.0 500.0 3.0 9.147676375112406e-41
190.0 500.0 3.0 9.147676375112406e-41
190.0 490.0 2.0 9.147676375112406e-41
190.0 480.0 3.0 9.147676375112406e-41
190.0 470.0 3.0 9.147676375112406e-41
190.0 460.0 4.0 9.147676375112406e-41
190.0 450.0 4.0 9.147676375112406e-41
190.0 440.0 4.0 9.147676375112406e-41
190.0 430.0 3.0 9.147676375112406e-41
190.0 420.0 4.0 9.147676375112406e-41
190.0 410.0 4.0 9.147676375112406e-41
190.0 400.0 4.0 9.147676375112406e-41
190.0 390.0 4.0 9.147676375112406e-41
190.0 380.0 3.0 9.147676375112406e-41
190.0 370.0 3.0 9.147676375112406e-41
190.0 360.0 3.0 9.147676375112406e-41
190.0 350.0 3.0 9.147676375112406e-41
190.0 340.0 3.0 9.147676375112406e-41
190.0 330.0 3.0 9.147676375112406e-41
190.0 320.0 3.0 9.147676375112406e-41
190.0 310.0 4.0 9.147676375112406e-41
190.0 300.0 2.0 9.147676375112406e-41
190.0 290.0 3.0 9.147676375112406e-41
190.0 280.0 3.0 9.147676375112406e-41
190.0 270.0 3.0 9.147676375112406e-41
190.0 260.0 2.0 9.147676375112406e-41
190.0 250.0 3.0 9.147676375112406e-41
190.0 240.0 2.0 9.147676375112406e-41
190.0 230.0 2.0 9.147676375112406e-41
190.0 220.0 2.0 9.147676375112406e-41
190.0 210.0 2.0 9.147676375112406e-41
190.0 200.0 3.0 9.147676375112406e-41
190.0 190.0 2.0 9.147676375112406e-41
190.0 180.0 2.0 9.147676375112406e-41
190.0 170.0 2.0 9.147676375112406e-41
190.0 160.0 2.0 9.147676375112406e-41
190.0 120.0 2.0 9.147676375112406e-41
190.0 100.0 2.0 9.147676375112406e-41
