# .PCD v.7 - Point Cloud Data file format
VERSION .7
FIELDS x y z rgb
SIZE 4 4 4 4
TYPE F F F F
COUNT 1 1 1 1
WIDTH 1064
HEIGHT 1
VIEWPOINT 0 0 0 1 0 0 0
POINTS 1064
DATA ascii
0.0 260.0 2.0 9.147676375112406e-41
0.0 320.0 2.0 9.147676375112406e-41
0.0 350.0 2.0 9.147676375112406e-41
0.0 370.0 2.0 9.147676375112406e-41
0.0 380.0 3.0 9.147676375112406e-41
0.0 390.0 3.0 9.147676375112406e-41
0.0 400.0 3.0 9.147676375112406e-41
0.0 410.0 2.0 9.147676375112406e-41
0.0 420.0 3.0 9.147676375112406e-41
0.0 430.0 3.0 9.147676375112406e-41
0.0 440.0 3.0 9.147676375112406e-41
0.0 450.0 3.0 9.147676375112406e-41
0.0 460.0 2.0 9.147676375112406e-41
0.0 470.0 6.0 9.147676375112406e-41
0.0 480.0 6.0 9.147676375112406e-41
0.0 490.0 6.0 9.147676375112406e-41
0.0 500.0 4.0 9.147676375112406e-41
10.0 500.0 4.0 9.147676375112406e-41
10.0 490.0 4.0 9.147676375112406e-41
10.0 480.0 6.0 9.147676375112406e-41
10.0 470.0 6.0 9.147676375112406e-41
10.0 460.0 6.0 9.147676375112406e-41
10.0 450.0 3.0 9.147676375112406e-41
10.0 440.0 4.0 9.147676375112406e-41
10.0 430.0 3.0 9.147676375112406e-41
10.0 420.0 4.0 9.147676375112406e-41
10.0 410.0 4.0 9.147676375112406e-41
10.0 400.0 3.0 9.147676375112406e-41
10.0 390.0 3.0 9.147676375112406e-41
10.0 380.0 3.0 9.147676375112406e-41
10.0 370.0 4.0 9.147676375112406e-41
10.0 360.0 2.0 9.147676375112406e-41
10.0 350.0 2.0 9.147676375112406e-41
10.0 340.0 2.0 9.147676375112406e-41
10.0 320.0 2.0 9.147676375112406e-41
10.0 210.0 2.0 9.147676375112406e-41
10.0 190.0 2.0 9.147676375112406e-41
20.0 280.0 2.0 9.147676375112406e-41
20.0 320.0 2.0 9.147676375112406e-41
20.0 340.0 2.0 9.147676375112406e-41
20.0 360.0 2.0 9.147676375112406e-41
20.0 380.0 2.0 9.147676375112406e-41
20.0 390.0 2.0 9.147676375112406e-41
20.0 400.0 4.0 9.147676375112406e-41
20.0 410.0 4.0 9.147676375112406e-41
20.0 420.0 2.0 9.147676375112406e-41
20.0 430.0 2.0 9.147676375112406e-41
20.0 440.0 3.0 9.147676375112406e-41
20.0 450.0 3.0 9.147676375112406e-41
20.0 460.0 4.0 9.147676375112406e-41
20.0 470.0 4.0 9.147676375112406e-41
20.0 480.0 3.0 9.147676375112406e-41
20.0 490.0 6.0 9.147676375112406e-41
20.0 500.0 3.0 9.147676375112406e-41
30.0 500.0 3.0 9.147676375112406e-41
30.0 490.0 2.0 9.147676375112406e-41
30.0 480.0 3.0 9.147676375112406e-41
30.0 470.0 3.0 9.147676375112406e-41
30.0 460.0 3.0 9.147676375112406e-41
30.0 450.0 3.0 9.147676375112406e-41
30.0 440.0 3.0 9.147676375112406e-41
30.0 430.0 2.0 9.147676375112406e-41
30.0 420.0 4.0 9.147676375112406e-41
30.0 410.0 6.0 9.147676375112406e-41
30.0 400.0 8.0 9.147676375112406e-41
30.0 390.0 6.0 9.147676375112406e-41
30.0 380.0 13.0 9.147676375112406e-41
30.0 370.0 12.0 9.147676375112406e-41
30.0 360.0 12.0 9.147676375112406e-41
30.0 350.0 10.0 9.147676375112406e-41
30.0 340.0 6.0 9.147676375112406e-41
30.0 330.0 3.0 9.147676375112406e-41
30.0 320.0 2.0 9.147676375112406e-41
30.0 270.0 2.0 9.147676375112406e-41
30.0 220.0 2.0 9.147676375112406e-41
30.0 210.0 2.0 9.147676375112406e-41
30.0 190.0 2.0 9.147676375112406e-41
30.0 180.0 3.0 9.147676375112406e-41
30.0 170.0 3.0 9.147676375112406e-41
30.0 160.0 4.0 9.147676375112406e-41
30.0 150.0 6.0 9.147676375112406e-41
30.0 140.0 7.0 9.147676375112406e-41
30.0 130.0 4.0 9.147676375112406e-41
30.0 120.0 3.0 9.147676375112406e-41
30.0 110.0 3.0 9.147676375112406e-41
30.0 100.0 3.0 9.147676375112406e-41
40.0 100.0 2.0 9.147676375112406e-41
40.0 110.0 8.0 9.147676375112406e-41
40.0 120.0 12.0 9.147676375112406e-41
40.0 130.0 15.0 9.147676375112406e-41
40.0 140.0 15.0 9.147676375112406e-41
40.0 150.0 14.0 9.147676375112406e-41
40.0 160.0 7.0 9.147676375112406e-41
40.0 170.0 6.0 9.147676375112406e-41
40.0 180.0 2.0 9.147676375112406e-41
40.0 300.0 2.0 9.147676375112406e-41
40.0 310.0 3.0 9.147676375112406e-41
40.0 320.0 11.0 9.147676375112406e-41
40.0 330.0 17.0 9.147676375112406e-41
40.0 340.0 32.0 9.147676375112406e-41
40.0 350.0 32.0 9.147676375112406e-41
40.0 360.0 26.0 9.147676375112406e-41
40.0 370.0 15.0 9.147676375112406e-41
40.0 380.0 9.0 9.147676375112406e-41
40.0 390.0 6.0 9.147676375112406e-41
40.0 400.0 4.0 9.147676375112406e-41
40.0 410.0 3.0 9.147676375112406e-41
40.0 420.0 4.0 9.147676375112406e-41
40.0 430.0 3.0 9.147676375112406e-41
40.0 440.0 4.0 9.147676375112406e-41
40.0 450.0 3.0 9.147676375112406e-41
40.0 460.0 3.0 9.147676375112406e-41
40.0 470.0 3.0 9.147676375112406e-41
40.0 480.0 6.0 9.147676375112406e-41
40.0 490.0 4.0 9.147676375112406e-41
40.0 500.0 3.0 9.147676375112406e-41
50.0 500.0 3.0 9.147676375112406e-41
50.0 490.0 3.0 9.147676375112406e-41
50.0 480.0 3.0 9.147676375112406e-41
50.0 470.0 4.0 9.147676375112406e-41
50.0 460.0 3.0 9.147676375112406e-41
50.0 450.0 3.0 9.147676375112406e-41
50.0 440.0 3.0 9.147676375112406e-41
50.0 430.0 3.0 9.147676375112406e-41
50.0 420.0 4.0 9.147676375112406e-41
50.0 410.0 3.0 9.147676375112406e-41
50.0 400.0 4.0 9.147676375112406e-41
50.0 390.0 3.0 9.147676375112406e-41
50.0 380.0 4.0 9.147676375112406e-41
50.0 370.0 4.0 9.147676375112406e-41
50.0 360.0 6.0 9.147676375112406e-41
50.0 350.0 12.0 9.147676375112406e-41
50.0 340.0 25.0 9.147676375112406e-41
50.0 330.0 34.0 9.147676375112406e-41
50.0 320.0 37.0 9.147676375112406e-41
50.0 310.0 35.0 9.147676375112406e-41
50.0 300.0 31.0 9.147676375112406e-41
50.0 290.0 12.0 9.147676375112406e-41
50.0 280.0 3.0 9.147676375112406e-41
50.0 230.0 2.0 9.147676375112406e-41
50.0 220.0 2.0 9.147676375112406e-41
50.0 190.0 3.0 9.147676375112406e-41
50.0 180.0 3.0 9.147676375112406e-41
50.0 170.0 6.0 9.147676375112406e-41
50.0 160.0 8.0 9.147676375112406e-41
50.0 150.0 17.0 9.147676375112406e-41
50.0 140.0 18.0 9.147676375112406e-41
50.0 130.0 18.0 9.147676375112406e-41
50.0 120.0 17.0 9.147676375112406e-41
50.0 110.0 15.0 9.147676375112406e-41
50.0 100.0 14.0 9.147676375112406e-41
50.0 90.0 7.0 9.147676375112406e-41
50.0 80.0 2.0 9.147676375112406e-41
60.0 70.0 2.0 9.147676375112406e-41
60.0 80.0 6.0 9.147676375112406e-41
60.0 90.0 9.0 9.147676375112406e-41
60.0 100.0 14.0 9.147676375112406e-41
60.0 110.0 17.0 9.147676375112406e-41
60.0 120.0 17.0 9.147676375112406e-41
60.0 130.0 15.0 9.147676375112406e-41
60.0 140.0 15.0 9.147676375112406e-41
60.0 150.0 16.0 9.147676375112406e-41
60.0 160.0 13.0 9.147676375112406e-41
60.0 170.0 10.0 9.147676375112406e-41
60.0 180.0 4.0 9.147676375112406e-41
60.0 250.0 2.0 9.147676375112406e-41
60.0 260.0 4.0 9.147676375112406e-41
60.0 270.0 8.0 9.147676375112406e-41
60.0 280.0 17.0 9.147676375112406e-41
60.0 290.0 25.0 9.147676375112406e-41
60.0 300.0 29.0 9.147676375112406e-41
60.0 310.0 29.0 9.147676375112406e-41
60.0 320.0 30.0 9.147676375112406e-41
60.0 330.0 26.0 9.147676375112406e-41
60.0 340.0 16.0 9.147676375112406e-41
60.0 350.0 8.0 9.147676375112406e-41
60.0 360.0 3.0 9.147676375112406e-41
60.0 370.0 2.0 9.147676375112406e-41
60.0 380.0 2.0 9.147676375112406e-41
60.0 390.0 2.0 9.147676375112406e-41
60.0 400.0 3.0 9.147676375112406e-41
60.0 410.0 3.0 9.147676375112406e-41
60.0 420.0 3.0 9.147676375112406e-41
60.0 430.0 3.0 9.147676375112406e-41
60.0 440.0 2.0 9.147676375112406e-41
60.0 450.0 3.0 9.147676375112406e-41
60.0 460.0 3.0 9.147676375112406e-41
60.0 470.0 2.0 9.147676375112406e-41
60.0 480.0 2.0 9.147676375112406e-41
70.0 500.0 2.0 9.147676375112406e-41
70.0 470.0 2.0 9.147676375112406e-41
70.0 460.0 2.0 9.147676375112406e-41
70.0 450.0 2.0 9.147676375112406e-41
70.0 430.0 2.0 9.147676375112406e-41
70.0 420.0 3.0 9.147676375112406e-41
70.0 410.0 3.0 9.147676375112406e-41
70.0 400.0 6.0 9.147676375112406e-41
70.0 390.0 4.0 9.147676375112406e-41
70.0 380.0 8.0 9.147676375112406e-41
70.0 370.0 12.0 9.147676375112406e-41
70.0 360.0 19.0 9.147676375112406e-41
70.0 350.0 21.0 9.147676375112406e-41
70.0 340.0 25.0 9.147676375112406e-41
70.0 330.0 24.0 9.147676375112406e-41
70.0 320.0 23.0 9.147676375112406e-41
70.0 310.0 19.0 9.147676375112406e-41
70.0 300.0 16.0 9.147676375112406e-41
70.0 290.0 8.0 9.147676375112406e-41
70.0 280.0 2.0 9.147676375112406e-41
70.0 210.0 3.0 9.147676375112406e-41
70.0 200.0 13.0 9.147676375112406e-41
70.0 190.0 27.0 9.147676375112406e-41
70.0 180.0 29.0 9.147676375112406e-41
70.0 170.0 33.0 9.147676375112406e-41
70.0 160.0 33.0 9.147676375112406e-41
70.0 150.0 34.0 9.147676375112406e-41
70.0 140.0 30.0 9.147676375112406e-41
70.0 130.0 30.0 9.147676375112406e-41
70.0 120.0 28.0 9.147676375112406e-41
70.0 110.0 18.0 9.147676375112406e-41
70.0 100.0 10.0 9.147676375112406e-41
80.0 100.0 6.0 9.147676375112406e-41
80.0 110.0 10.0 9.147676375112406e-41
80.0 120.0 23.0 9.147676375112406e-41
80.0 130.0 29.0 9.147676375112406e-41
80.0 140.0 30.0 9.147676375112406e-41
80.0 150.0 30.0 9.147676375112406e-41
80.0 160.0 31.0 9.147676375112406e-41
80.0 170.0 28.0 9.147676375112406e-41
80.0 180.0 28.0 9.147676375112406e-41
80.0 190.0 21.0 9.147676375112406e-41
80.0 200.0 15.0 9.147676375112406e-41
80.0 210.0 6.0 9.147676375112406e-41
80.0 220.0 2.0 9.147676375112406e-41
80.0 270.0 3.0 9.147676375112406e-41
80.0 280.0 16.0 9.147676375112406e-41
80.0 290.0 26.0 9.147676375112406e-41
80.0 300.0 30.0 9.147676375112406e-41
80.0 310.0 32.0 9.147676375112406e-41
80.0 320.0 35.0 9.147676375112406e-41
80.0 330.0 32.0 9.147676375112406e-41
80.0 340.0 30.0 9.147676375112406e-41
80.0 350.0 27.0 9.147676375112406e-41
80.0 360.0 21.0 9.147676375112406e-41
80.0 370.0 10.0 9.147676375112406e-41
80.0 380.0 4.0 9.147676375112406e-41
90.0 380.0 4.0 9.147676375112406e-41
90.0 370.0 8.0 9.147676375112406e-41
90.0 360.0 17.0 9.147676375112406e-41
90.0 350.0 27.0 9.147676375112406e-41
90.0 340.0 31.0 9.147676375112406e-41
90.0 330.0 33.0 9.147676375112406e-41
90.0 320.0 33.0 9.147676375112406e-41
90.0 310.0 35.0 9.147676375112406e-41
90.0 300.0 33.0 9.147676375112406e-41
90.0 290.0 31.0 9.147676375112406e-41
90.0 280.0 27.0 9.147676375112406e-41
90.0 270.0 18.0 9.147676375112406e-41
90.0 260.0 14.0 9.147676375112406e-41
90.0 250.0 2.0 9.147676375112406e-41
90.0 230.0 3.0 9.147676375112406e-41
90.0 220.0 7.0 9.147676375112406e-41
90.0 210.0 13.0 9.147676375112406e-41
90.0 200.0 27.0 9.147676375112406e-41
90.0 190.0 30.0 9.147676375112406e-41
90.0 180.0 31.0 9.147676375112406e-41
90.0 170.0 34.0 9.147676375112406e-41
90.0 160.0 35.0 9.147676375112406e-41
90.0 150.0 35.0 9.147676375112406e-41
90.0 140.0 34.0 9.147676375112406e-41
90.0 130.0 32.0 9.147676375112406e-41
90.0 120.0 29.0 9.147676375112406e-41
90.0 110.0 17.0 9.147676375112406e-41
90.0 100.0 8.0 9.147676375112406e-41
100.0 100.0 2.0 9.147676375112406e-41
100.0 110.0 10.0 9.147676375112406e-41
100.0 120.0 25.0 9.147676375112406e-41
100.0 130.0 27.0 9.147676375112406e-41
100.0 140.0 32.0 9.147676375112406e-41
100.0 150.0 34.0 9.147676375112406e-41
100.0 160.0 33.0 9.147676375112406e-41
100.0 170.0 32.0 9.147676375112406e-41
100.0 180.0 30.0 9.147676375112406e-41
100.0 190.0 28.0 9.147676375112406e-41
100.0 200.0 24.0 9.147676375112406e-41
100.0 210.0 17.0 9.147676375112406e-41
100.0 220.0 3.0 9.147676375112406e-41
100.0 260.0 6.0 9.147676375112406e-41
100.0 270.0 11.0 9.147676375112406e-41
100.0 280.0 25.0 9.147676375112406e-41
100.0 290.0 29.0 9.147676375112406e-41
100.0 300.0 30.0 9.147676375112406e-41
100.0 310.0 32.0 9.147676375112406e-41
100.0 320.0 35.0 9.147676375112406e-41
100.0 330.0 33.0 9.147676375112406e-41
100.0 340.0 31.0 9.147676375112406e-41
100.0 350.0 27.0 9.147676375112406e-41
100.0 360.0 23.0 9.147676375112406e-41
100.0 370.0 13.0 9.147676375112406e-41
100.0 380.0 8.0 9.147676375112406e-41
100.0 390.0 6.0 9.147676375112406e-41
100.0 400.0 2.0 9.147676375112406e-41
110.0 390.0 2.0 9.147676375112406e-41
110.0 380.0 6.0 9.147676375112406e-41
110.0 370.0 12.0 9.147676375112406e-41
110.0 360.0 17.0 9.147676375112406e-41
110.0 350.0 24.0 9.147676375112406e-41
110.0 340.0 30.0 9.147676375112406e-41
110.0 330.0 33.0 9.147676375112406e-41
110.0 320.0 34.0 9.147676375112406e-41
110.0 310.0 34.0 9.147676375112406e-41
110.0 300.0 34.0 9.147676375112406e-41
110.0 290.0 33.0 9.147676375112406e-41
110.0 280.0 30.0 9.147676375112406e-41
110.0 270.0 23.0 9.147676375112406e-41
110.0 260.0 11.0 9.147676375112406e-41
110.0 250.0 3.0 9.147676375112406e-41
110.0 230.0 6.0 9.147676375112406e-41
110.0 220.0 11.0 9.147676375112406e-41
110.0 210.0 21.0 9.147676375112406e-41
110.0 200.0 29.0 9.147676375112406e-41
110.0 190.0 33.0 9.147676375112406e-41
110.0 180.0 34.0 9.147676375112406e-41
110.0 170.0 36.0 9.147676375112406e-41
110.0 160.0 36.0 9.147676375112406e-41
110.0 150.0 33.0 9.147676375112406e-41
110.0 140.0 32.0 9.147676375112406e-41
110.0 130.0 28.0 9.147676375112406e-41
110.0 120.0 18.0 9.147676375112406e-41
110.0 110.0 8.0 9.147676375112406e-41
120.0 110.0 3.0 9.147676375112406e-41
120.0 120.0 14.0 9.147676375112406e-41
120.0 130.0 29.0 9.147676375112406e-41
120.0 140.0 32.0 9.147676375112406e-41
120.0 150.0 33.0 9.147676375112406e-41
120.0 160.0 35.0 9.147676375112406e-41
120.0 170.0 35.0 9.147676375112406e-41
120.0 180.0 34.0 9.147676375112406e-41
120.0 190.0 32.0 9.147676375112406e-41
120.0 200.0 31.0 9.147676375112406e-41
120.0 210.0 30.0 9.147676375112406e-41
120.0 220.0 24.0 9.147676375112406e-41
120.0 230.0 10.0 9.147676375112406e-41
120.0 240.0 6.0 9.147676375112406e-41
120.0 250.0 3.0 9.147676375112406e-41
120.0 260.0 10.0 9.147676375112406e-41
120.0 270.0 18.0 9.147676375112406e-41
120.0 280.0 25.0 9.147676375112406e-41
120.0 290.0 28.0 9.147676375112406e-41
120.0 300.0 29.0 9.147676375112406e-41
120.0 310.0 31.0 9.147676375112406e-41
120.0 320.0 33.0 9.147676375112406e-41
120.0 330.0 32.0 9.147676375112406e-41
120.0 340.0 33.0 9.147676375112406e-41
120.0 350.0 30.0 9.147676375112406e-41
120.0 360.0 26.0 9.147676375112406e-41
120.0 370.0 15.0 9.147676375112406e-41
120.0 380.0 12.0 9.147676375112406e-41
120.0 390.0 4.0 9.147676375112406e-41
130.0 390.0 2.0 9.147676375112406e-41
130.0 380.0 7.0 9.147676375112406e-41
130.0 370.0 14.0 9.147676375112406e-41
130.0 360.0 18.0 9.147676375112406e-41
130.0 350.0 27.0 9.147676375112406e-41
130.0 340.0 29.0 9.147676375112406e-41
130.0 330.0 33.0 9.147676375112406e-41
130.0 320.0 34.0 9.147676375112406e-41
130.0 310.0 34.0 9.147676375112406e-41
130.0 300.0 33.0 9.147676375112406e-41
130.0 290.0 32.0 9.147676375112406e-41
130.0 280.0 30.0 9.147676375112406e-41
130.0 270.0 27.0 9.147676375112406e-41
130.0 260.0 13.0 9.147676375112406e-41
130.0 250.0 8.0 9.147676375112406e-41
130.0 240.0 8.0 9.147676375112406e-41
130.0 230.0 14.0 9.147676375112406e-41
130.0 220.0 24.0 9.147676375112406e-41
130.0 210.0 31.0 9.147676375112406e-41
130.0 200.0 33.0 9.147676375112406e-41
130.0 190.0 36.0 9.147676375112406e-41
130.0 180.0 37.0 9.147676375112406e-41
130.0 170.0 37.0 9.147676375112406e-41
130.0 160.0 36.0 9.147676375112406e-41
130.0 150.0 36.0 9.147676375112406e-41
130.0 140.0 33.0 9.147676375112406e-41
130.0 130.0 29.0 9.147676375112406e-41
130.0 120.0 18.0 9.147676375112406e-41
130.0 110.0 4.0 9.147676375112406e-41
130.0 100.0 2.0 9.147676375112406e-41
140.0 120.0 3.0 9.147676375112406e-41
140.0 130.0 18.0 9.147676375112406e-41
140.0 140.0 29.0 9.147676375112406e-41
140.0 150.0 31.0 9.147676375112406e-41
140.0 160.0 33.0 9.147676375112406e-41
140.0 170.0 35.0 9.147676375112406e-41
140.0 180.0 35.0 9.147676375112406e-41
140.0 190.0 35.0 9.147676375112406e-41
140.0 200.0 33.0 9.147676375112406e-41
140.0 210.0 32.0 9.147676375112406e-41
140.0 220.0 21.0 9.147676375112406e-41
140.0 230.0 21.0 9.147676375112406e-41
140.0 240.0 11.0 9.147676375112406e-41
140.0 250.0 12.0 9.147676375112406e-41
140.0 260.0 14.0 9.147676375112406e-41
140.0 270.0 21.0 9.147676375112406e-41
140.0 280.0 30.0 9.147676375112406e-41
140.0 290.0 30.0 9.147676375112406e-41
140.0 300.0 32.0 9.147676375112406e-41
140.0 310.0 33.0 9.147676375112406e-41
140.0 320.0 34.0 9.147676375112406e-41
140.0 330.0 32.0 9.147676375112406e-41
140.0 340.0 32.0 9.147676375112406e-41
140.0 350.0 31.0 9.147676375112406e-41
140.0 360.0 27.0 9.147676375112406e-41
140.0 370.0 16.0 9.147676375112406e-41
140.0 380.0 8.0 9.147676375112406e-41
140.0 390.0 6.0 9.147676375112406e-41
140.0 400.0 2.0 9.147676375112406e-41
150.0 380.0 4.0 9.147676375112406e-41
150.0 370.0 8.0 9.147676375112406e-41
150.0 360.0 16.0 9.147676375112406e-41
150.0 350.0 24.0 9.147676375112406e-41
150.0 340.0 31.0 9.147676375112406e-41
150.0 330.0 33.0 9.147676375112406e-41
150.0 320.0 34.0 9.147676375112406e-41
150.0 310.0 35.0 9.147676375112406e-41
150.0 300.0 34.0 9.147676375112406e-41
150.0 290.0 33.0 9.147676375112406e-41
150.0 280.0 32.0 9.147676375112406e-41
150.0 270.0 31.0 9.147676375112406e-41
150.0 260.0 21.0 9.147676375112406e-41
150.0 250.0 14.0 9.147676375112406e-41
150.0 240.0 12.0 9.147676375112406e-41
150.0 230.0 17.0 9.147676375112406e-41
150.0 220.0 25.0 9.147676375112406e-41
150.0 210.0 33.0 9.147676375112406e-41
150.0 200.0 34.0 9.147676375112406e-41
150.0 190.0 35.0 9.147676375112406e-41
150.0 180.0 37.0 9.147676375112406e-41
150.0 170.0 36.0 9.147676375112406e-41
150.0 160.0 36.0 9.147676375112406e-41
150.0 150.0 33.0 9.147676375112406e-41
150.0 140.0 32.0 9.147676375112406e-41
150.0 130.0 23.0 9.147676375112406e-41
150.0 120.0 15.0 9.147676375112406e-41
150.0 110.0 3.0 9.147676375112406e-41
160.0 120.0 3.0 9.147676375112406e-41
160.0 130.0 18.0 9.147676375112406e-41
160.0 140.0 27.0 9.147676375112406e-41
160.0 150.0 33.0 9.147676375112406e-41
160.0 160.0 35.0 9.147676375112406e-41
160.0 170.0 36.0 9.147676375112406e-41
160.0 180.0 36.0 9.147676375112406e-41
160.0 190.0 36.0 9.147676375112406e-41
160.0 200.0 35.0 9.147676375112406e-41
160.0 210.0 32.0 9.147676375112406e-41
160.0 220.0 31.0 9.147676375112406e-41
160.0 230.0 25.0 9.147676375112406e-41
160.0 240.0 18.0 9.147676375112406e-41
160.0 250.0 21.0 9.147676375112406e-41
160.0 260.0 21.0 9.147676375112406e-41
160.0 270.0 24.0 9.147676375112406e-41
160.0 280.0 28.0 9.147676375112406e-41
160.0 290.0 32.0 9.147676375112406e-41
160.0 300.0 33.0 9.147676375112406e-41
160.0 310.0 34.0 9.147676375112406e-41
160.0 320.0 35.0 9.147676375112406e-41
160.0 330.0 35.0 9.147676375112406e-41
160.0 340.0 35.0 9.147676375112406e-41
160.0 350.0 32.0 9.147676375112406e-41
160.0 360.0 28.0 9.147676375112406e-41
160.0 370.0 19.0 9.147676375112406e-41
160.0 380.0 10.0 9.147676375112406e-41
160.0 390.0 6.0 9.147676375112406e-41
160.0 400.0 3.0 9.147676375112406e-41
160.0 410.0 2.0 9.147676375112406e-41
160.0 500.0 3.0 9.147676375112406e-41
170.0 500.0 2.0 9.147676375112406e-41
170.0 490.0 2.0 9.147676375112406e-41
170.0 400.0 2.0 9.147676375112406e-41
170.0 380.0 4.0 9.147676375112406e-41
170.0 370.0 6.0 9.147676375112406e-41
170.0 360.0 13.0 9.147676375112406e-41
170.0 350.0 21.0 9.147676375112406e-41
170.0 340.0 29.0 9.147676375112406e-41
170.0 330.0 32.0 9.147676375112406e-41
170.0 320.0 35.0 9.147676375112406e-41
170.0 310.0 36.0 9.147676375112406e-41
170.0 300.0 36.0 9.147676375112406e-41
170.0 290.0 35.0 9.147676375112406e-41
170.0 280.0 34.0 9.147676375112406e-41
170.0 270.0 33.0 9.147676375112406e-41
170.0 260.0 30.0 9.147676375112406e-41
170.0 250.0 26.0 9.147676375112406e-41
170.0 240.0 23.0 9.147676375112406e-41
170.0 230.0 23.0 9.147676375112406e-41
170.0 220.0 31.0 9.147676375112406e-41
170.0 210.0 36.0 9.147676375112406e-41
170.0 200.0 36.0 9.147676375112406e-41
170.0 190.0 38.0 9.147676375112406e-41
170.0 180.0 37.0 9.147676375112406e-41
170.0 170.0 37.0 9.147676375112406e-41
170.0 160.0 33.0 9.147676375112406e-41
170.0 150.0 30.0 9.147676375112406e-41
170.0 140.0 24.0 9.147676375112406e-41
170.0 130.0 12.0 9.147676375112406e-41
170.0 120.0 9.0 9.147676375112406e-41
180.0 60.0 2.0 9.147676375112406e-41
180.0 70.0 6.0 9.147676375112406e-41
180.0 80.0 7.0 9.147676375112406e-41
180.0 90.0 4.0 9.147676375112406e-41
180.0 100.0 6.0 9.147676375112406e-41
180.0 110.0 7.0 9.147676375112406e-41
180.0 120.0 10.0 9.147676375112406e-41
180.0 130.0 24.0 9.147676375112406e-41
180.0 140.0 28.0 9.147676375112406e-41
180.0 150.0 32.0 9.147676375112406e-41
180.0 160.0 33.0 9.147676375112406e-41
180.0 170.0 35.0 9.147676375112406e-41
180.0 180.0 36.0 9.147676375112406e-41
180.0 190.0 35.0 9.147676375112406e-41
180.0 200.0 36.0 9.147676375112406e-41
180.0 210.0 35.0 9.147676375112406e-41
180.0 220.0 34.0 9.147676375112406e-41
180.0 230.0 30.0 9.147676375112406e-41
180.0 240.0 27.0 9.147676375112406e-41
180.0 250.0 28.0 9.147676375112406e-41
180.0 260.0 28.0 9.147676375112406e-41
180.0 270.0 30.0 9.147676375112406e-41
180.0 280.0 32.0 9.147676375112406e-41
180.0 290.0 33.0 9.147676375112406e-41
180.0 300.0 35.0 9.147676375112406e-41
180.0 310.0 35.0 9.147676375112406e-41
180.0 320.0 35.0 9.147676375112406e-41
180.0 330.0 34.0 9.147676375112406e-41
180.0 340.0 33.0 9.147676375112406e-41
180.0 350.0 31.0 9.147676375112406e-41
180.0 360.0 23.0 9.147676375112406e-41
180.0 370.0 15.0 9.147676375112406e-41
180.0 380.0 14.0 9.147676375112406e-41
180.0 390.0 7.0 9.147676375112406e-41
180.0 400.0 3.0 9.147676375112406e-41
180.0 410.0 2.0 9.147676375112406e-41
180.0 480.0 2.0 9.147676375112406e-41
180.0 490.0 4.0 9.147676375112406e-41
180.0 500.0 8.0 9.147676375112406e-41
190.0 500.0 6.0 9.147676375112406e-41
190.0 490.0 7.0 9.147676375112406e-41
190.0 480.0 4.0 9.147676375112406e-41
190.0 470.0 3.0 9.147676375112406e-41
190.0 460.0 3.0 9.147676375112406e-41
190.0 390.0 3.0 9.147676375112406e-41
190.0 380.0 4.0 9.147676375112406e-41
190.0 370.0 10.0 9.147676375112406e-41
190.0 360.0 16.0 9.147676375112406e-41
190.0 350.0 27.0 9.147676375112406e-41
190.0 340.0 31.0 9.147676375112406e-41
190.0 330.0 34.0 9.147676375112406e-41
190.0 320.0 34.0 9.147676375112406e-41
190.0 310.0 37.0 9.147676375112406e-41
190.0 300.0 37.0 9.147676375112406e-41
190.0 290.0 36.0 9.147676375112406e-41
190.0 280.0 35.0 9.147676375112406e-41
190.0 270.0 35.0 9.147676375112406e-41
190.0 260.0 33.0 9.147676375112406e-41
190.0 250.0 33.0 9.147676375112406e-41
190.0 240.0 32.0 9.147676375112406e-41
190.0 230.0 33.0 9.147676375112406e-41
190.0 220.0 34.0 9.147676375112406e-41
190.0 210.0 36.0 9.147676375112406e-41
190.0 200.0 37.0 9.147676375112406e-41
190.0 190.0 40.0 9.147676375112406e-41
190.0 180.0 41.0 9.147676375112406e-41
190.0 170.0 37.0 9.147676375112406e-41
190.0 160.0 37.0 9.147676375112406e-41
190.0 150.0 33.0 9.147676375112406e-41
190.0 140.0 32.0 9.147676375112406e-41
190.0 130.0 28.0 9.147676375112406e-41
190.0 120.0 20.0 9.147676375112406e-41
190.0 110.0 17.0 9.147676375112406e-41
190.0 100.0 18.0 9.147676375112406e-41
190.0 90.0 15.0 9.147676375112406e-41
190.0 80.0 17.0 9.147676375112406e-41
190.0 70.0 15.0 9.147676375112406e-41
190.0 60.0 14.0 9.147676375112406e-41
190.0 50.0 14.0 9.147676375112406e-41
190.0 40.0 8.0 9.147676375112406e-41
190.0 30.0 10.0 9.147676375112406e-41
190.0 20.0 6.0 9.147676375112406e-41
200.0 20.0 4.0 9.147676375112406e-41
200.0 30.0 10.0 9.147676375112406e-41
200.0 40.0 12.0 9.147676375112406e-41
200.0 50.0 16.0 9.147676375112406e-41
200.0 60.0 16.0 9.147676375112406e-41
200.0 70.0 18.0 9.147676375112406e-41
200.0 80.0 21.0 9.147676375112406e-41
200.0 90.0 20.0 9.147676375112406e-41
200.0 100.0 20.0 9.147676375112406e-41
200.0 110.0 20.0 9.147676375112406e-41
200.0 120.0 23.0 9.147676375112406e-41
200.0 130.0 28.0 9.147676375112406e-41
200.0 140.0 32.0 9.147676375112406e-41
200.0 150.0 34.0 9.147676375112406e-41
200.0 160.0 36.0 9.147676375112406e-41
200.0 170.0 36.0 9.147676375112406e-41
200.0 180.0 37.0 9.147676375112406e-41
200.0 190.0 36.0 9.147676375112406e-41
200.0 200.0 36.0 9.147676375112406e-41
200.0 210.0 36.0 9.147676375112406e-41
200.0 220.0 36.0 9.147676375112406e-41
200.0 230.0 36.0 9.147676375112406e-41
200.0 240.0 35.0 9.147676375112406e-41
200.0 250.0 35.0 9.147676375112406e-41
200.0 260.0 37.0 9.147676375112406e-41
200.0 270.0 36.0 9.147676375112406e-41
200.0 280.0 36.0 9.147676375112406e-41
200.0 290.0 36.0 9.147676375112406e-41
200.0 300.0 36.0 9.147676375112406e-41
200.0 310.0 36.0 9.147676375112406e-41
200.0 320.0 35.0 9.147676375112406e-41
200.0 330.0 35.0 9.147676375112406e-41
200.0 340.0 34.0 9.147676375112406e-41
200.0 350.0 35.0 9.147676375112406e-41
200.0 360.0 30.0 9.147676375112406e-41
200.0 370.0 24.0 9.147676375112406e-41
200.0 380.0 17.0 9.147676375112406e-41
200.0 390.0 11.0 9.147676375112406e-41
200.0 400.0 8.0 9.147676375112406e-41
200.0 410.0 4.0 9.147676375112406e-41
200.0 420.0 3.0 9.147676375112406e-41
200.0 460.0 2.0 9.147676375112406e-41
200.0 470.0 3.0 9.147676375112406e-41
200.0 480.0 4.0 9.147676375112406e-41
200.0 490.0 9.0 9.147676375112406e-41
200.0 500.0 11.0 9.147676375112406e-41
210.0 500.0 9.0 9.147676375112406e-41
210.0 490.0 10.0 9.147676375112406e-41
210.0 480.0 8.0 9.147676375112406e-41
210.0 470.0 6.0 9.147676375112406e-41
210.0 460.0 4.0 9.147676375112406e-41
210.0 450.0 4.0 9.147676375112406e-41
210.0 440.0 2.0 9.147676375112406e-41
210.0 430.0 4.0 9.147676375112406e-41
210.0 420.0 7.0 9.147676375112406e-41
210.0 410.0 9.0 9.147676375112406e-41
210.0 400.0 11.0 9.147676375112406e-41
210.0 390.0 17.0 9.147676375112406e-41
210.0 380.0 23.0 9.147676375112406e-41
210.0 370.0 27.0 9.147676375112406e-41
210.0 360.0 29.0 9.147676375112406e-41
210.0 350.0 31.0 9.147676375112406e-41
210.0 340.0 34.0 9.147676375112406e-41
210.0 330.0 35.0 9.147676375112406e-41
210.0 320.0 36.0 9.147676375112406e-41
210.0 310.0 37.0 9.147676375112406e-41
210.0 300.0 38.0 9.147676375112406e-41
210.0 290.0 38.0 9.147676375112406e-41
210.0 280.0 40.0 9.147676375112406e-41
210.0 270.0 40.0 9.147676375112406e-41
210.0 260.0 41.0 9.147676375112406e-41
210.0 250.0 41.0 9.147676375112406e-41
210.0 240.0 40.0 9.147676375112406e-41
210.0 230.0 38.0 9.147676375112406e-41
210.0 220.0 38.0 9.147676375112406e-41
210.0 210.0 38.0 9.147676375112406e-41
210.0 200.0 38.0 9.147676375112406e-41
210.0 190.0 38.0 9.147676375112406e-41
210.0 180.0 37.0 9.147676375112406e-41
210.0 170.0 40.0 9.147676375112406e-41
210.0 160.0 38.0 9.147676375112406e-41
210.0 150.0 37.0 9.147676375112406e-41
210.0 140.0 37.0 9.147676375112406e-41
210.0 130.0 36.0 9.147676375112406e-41
210.0 120.0 34.0 9.147676375112406e-41
210.0 110.0 34.0 9.147676375112406e-41
210.0 100.0 32.0 9.147676375112406e-41
210.0 90.0 28.0 9.147676375112406e-41
210.0 80.0 27.0 9.147676375112406e-41
210.0 70.0 26.0 9.147676375112406e-41
210.0 60.0 24.0 9.147676375112406e-41
210.0 50.0 20.0 9.147676375112406e-41
210.0 40.0 17.0 9.147676375112406e-41
210.0 30.0 12.0 9.147676375112406e-41
210.0 20.0 11.0 9.147676375112406e-41
210.0 10.0 9.0 9.147676375112406e-41
210.0 0.0 4.0 9.147676375112406e-41
220.0 0.0 6.0 9.147676375112406e-41
220.0 10.0 2.0 9.147676375112406e-41
220.0 20.0 15.0 9.147676375112406e-41
220.0 30.0 18.0 9.147676375112406e-41
220.0 40.0 19.0 9.147676375112406e-41
220.0 50.0 24.0 9.147676375112406e-41
220.0 60.0 27.0 9.147676375112406e-41
220.0 70.0 26.0 9.147676375112406e-41
220.0 80.0 27.0 9.147676375112406e-41
220.0 90.0 30.0 9.147676375112406e-41
220.0 100.0 33.0 9.147676375112406e-41
220.0 110.0 35.0 9.147676375112406e-41
220.0 120.0 34.0 9.147676375112406e-41
220.0 130.0 37.0 9.147676375112406e-41
220.0 140.0 37.0 9.147676375112406e-41
220.0 150.0 36.0 9.147676375112406e-41
220.0 160.0 38.0 9.147676375112406e-41
220.0 170.0 40.0 9.147676375112406e-41
220.0 180.0 40.0 9.147676375112406e-41
220.0 190.0 37.0 9.147676375112406e-41
220.0 200.0 38.0 9.147676375112406e-41
220.0 210.0 38.0 9.147676375112406e-41
220.0 220.0 38.0 9.147676375112406e-41
220.0 230.0 38.0 9.147676375112406e-41
220.0 240.0 37.0 9.147676375112406e-41
220.0 250.0 40.0 9.147676375112406e-41
220.0 260.0 40.0 9.147676375112406e-41
220.0 270.0 40.0 9.147676375112406e-41
220.0 280.0 40.0 9.147676375112406e-41
220.0 290.0 40.0 9.147676375112406e-41
220.0 300.0 38.0 9.147676375112406e-41
220.0 310.0 38.0 9.147676375112406e-41
220.0 320.0 37.0 9.147676375112406e-41
220.0 330.0 37.0 9.147676375112406e-41
220.0 340.0 36.0 9.147676375112406e-41
220.0 350.0 35.0 9.147676375112406e-41
220.0 360.0 34.0 9.147676375112406e-41
220.0 370.0 34.0 9.147676375112406e-41
220.0 380.0 32.0 9.147676375112406e-41
220.0 390.0 31.0 9.147676375112406e-41
220.0 400.0 29.0 9.147676375112406e-41
220.0 410.0 26.0 9.147676375112406e-41
220.0 420.0 23.0 9.147676375112406e-41
220.0 430.0 19.0 9.147676375112406e-41
220.0 440.0 14.0 9.147676375112406e-41
220.0 450.0 12.0 9.147676375112406e-41
220.0 460.0 12.0 9.147676375112406e-41
220.0 470.0 11.0 9.147676375112406e-41
220.0 480.0 13.0 9.147676375112406e-41
220.0 490.0 14.0 9.147676375112406e-41
220.0 500.0 15.0 9.147676375112406e-41
230.0 500.0 15.0 9.147676375112406e-41
230.0 490.0 15.0 9.147676375112406e-41
230.0 480.0 15.0 9.147676375112406e-41
230.0 470.0 15.0 9.147676375112406e-41
230.0 460.0 14.0 9.147676375112406e-41
230.0 450.0 13.0 9.147676375112406e-41
230.0 440.0 13.0 9.147676375112406e-41
230.0 430.0 17.0 9.147676375112406e-41
230.0 420.0 23.0 9.147676375112406e-41
230.0 410.0 27.0 9.147676375112406e-41
230.0 400.0 27.0 9.147676375112406e-41
230.0 390.0 28.0 9.147676375112406e-41
230.0 380.0 32.0 9.147676375112406e-41
230.0 370.0 33.0 9.147676375112406e-41
230.0 360.0 35.0 9.147676375112406e-41
230.0 350.0 35.0 9.147676375112406e-41
230.0 340.0 36.0 9.147676375112406e-41
230.0 330.0 35.0 9.147676375112406e-41
230.0 320.0 36.0 9.147676375112406e-41
230.0 310.0 37.0 9.147676375112406e-41
230.0 300.0 37.0 9.147676375112406e-41
230.0 290.0 40.0 9.147676375112406e-41
230.0 280.0 40.0 9.147676375112406e-41
230.0 270.0 40.0 9.147676375112406e-41
230.0 260.0 41.0 9.147676375112406e-41
230.0 250.0 41.0 9.147676375112406e-41
230.0 240.0 40.0 9.147676375112406e-41
230.0 230.0 40.0 9.147676375112406e-41
230.0 220.0 40.0 9.147676375112406e-41
230.0 210.0 40.0 9.147676375112406e-41
230.0 200.0 40.0 9.147676375112406e-41
230.0 190.0 40.0 9.147676375112406e-41
230.0 180.0 38.0 9.147676375112406e-41
230.0 170.0 40.0 9.147676375112406e-41
230.0 160.0 41.0 9.147676375112406e-41
230.0 150.0 40.0 9.147676375112406e-41
230.0 140.0 40.0 9.147676375112406e-41
230.0 130.0 37.0 9.147676375112406e-41
230.0 120.0 38.0 9.147676375112406e-41
230.0 110.0 36.0 9.147676375112406e-41
230.0 100.0 36.0 9.147676375112406e-41
230.0 90.0 37.0 9.147676375112406e-41
230.0 80.0 35.0 9.147676375112406e-41
230.0 70.0 34.0 9.147676375112406e-41
230.0 60.0 31.0 9.147676375112406e-41
230.0 50.0 29.0 9.147676375112406e-41
230.0 40.0 28.0 9.147676375112406e-41
230.0 30.0 26.0 9.147676375112406e-41
230.0 20.0 23.0 9.147676375112406e-41
230.0 10.0 20.0 9.147676375112406e-41
230.0 0.0 17.0 9.147676375112406e-41
240.0 0.0 15.0 9.147676375112406e-41
240.0 10.0 20.0 9.147676375112406e-41
240.0 20.0 25.0 9.147676375112406e-41
240.0 30.0 29.0 9.147676375112406e-41
240.0 40.0 29.0 9.147676375112406e-41
240.0 50.0 31.0 9.147676375112406e-41
240.0 60.0 34.0 9.147676375112406e-41
240.0 70.0 36.0 9.147676375112406e-41
240.0 80.0 35.0 9.147676375112406e-41
240.0 90.0 37.0 9.147676375112406e-41
240.0 100.0 36.0 9.147676375112406e-41
240.0 110.0 36.0 9.147676375112406e-41
240.0 120.0 37.0 9.147676375112406e-41
240.0 130.0 36.0 9.147676375112406e-41
240.0 140.0 40.0 9.147676375112406e-41
240.0 150.0 37.0 9.147676375112406e-41
240.0 160.0 37.0 9.147676375112406e-41
240.0 170.0 36.0 9.147676375112406e-41
240.0 180.0 37.0 9.147676375112406e-41
240.0 190.0 37.0 9.147676375112406e-41
240.0 200.0 37.0 9.147676375112406e-41
240.0 210.0 37.0 9.147676375112406e-41
240.0 220.0 37.0 9.147676375112406e-41
240.0 230.0 38.0 9.147676375112406e-41
240.0 240.0 38.0 9.147676375112406e-41
240.0 250.0 40.0 9.147676375112406e-41
240.0 260.0 41.0 9.147676375112406e-41
240.0 270.0 40.0 9.147676375112406e-41
240.0 280.0 40.0 9.147676375112406e-41
240.0 290.0 40.0 9.147676375112406e-41
240.0 300.0 40.0 9.147676375112406e-41
240.0 310.0 37.0 9.147676375112406e-41
240.0 320.0 37.0 9.147676375112406e-41
240.0 330.0 36.0 9.147676375112406e-41
240.0 340.0 36.0 9.147676375112406e-41
240.0 350.0 36.0 9.147676375112406e-41
240.0 360.0 36.0 9.147676375112406e-41
240.0 370.0 35.0 9.147676375112406e-41
240.0 380.0 34.0 9.147676375112406e-41
240.0 390.0 34.0 9.147676375112406e-41
240.0 400.0 34.0 9.147676375112406e-41
240.0 410.0 32.0 9.147676375112406e-41
240.0 420.0 29.0 9.147676375112406e-41
240.0 430.0 26.0 9.147676375112406e-41
240.0 440.0 24.0 9.147676375112406e-41
240.0 450.0 21.0 9.147676375112406e-41
240.0 460.0 18.0 9.147676375112406e-41
240.0 470.0 17.0 9.147676375112406e-41
240.0 480.0 16.0 9.147676375112406e-41
240.0 490.0 18.0 9.147676375112406e-41
240.0 500.0 17.0 9.147676375112406e-41
250.0 500.0 18.0 9.147676375112406e-41
250.0 490.0 17.0 9.147676375112406e-41
250.0 480.0 18.0 9.147676375112406e-41
250.0 470.0 20.0 9.147676375112406e-41
250.0 460.0 19.0 9.147676375112406e-41
250.0 450.0 23.0 9.147676375112406e-41
250.0 440.0 26.0 9.147676375112406e-41
250.0 430.0 28.0 9.147676375112406e-41
250.0 420.0 30.0 9.147676375112406e-41
250.0 410.0 32.0 9.147676375112406e-41
250.0 400.0 34.0 9.147676375112406e-41
250.0 390.0 34.0 9.147676375112406e-41
250.0 380.0 35.0 9.147676375112406e-41
250.0 370.0 35.0 9.147676375112406e-41
250.0 360.0 36.0 9.147676375112406e-41
250.0 350.0 36.0 9.147676375112406e-41
250.0 340.0 36.0 9.147676375112406e-41
250.0 330.0 37.0 9.147676375112406e-41
250.0 320.0 36.0 9.147676375112406e-41
250.0 310.0 37.0 9.147676375112406e-41
250.0 300.0 36.0 9.147676375112406e-41
250.0 290.0 38.0 9.147676375112406e-41
250.0 280.0 40.0 9.147676375112406e-41
250.0 270.0 41.0 9.147676375112406e-41
250.0 260.0 40.0 9.147676375112406e-41
250.0 250.0 40.0 9.147676375112406e-41
250.0 240.0 40.0 9.147676375112406e-41
250.0 230.0 38.0 9.147676375112406e-41
250.0 220.0 38.0 9.147676375112406e-41
250.0 210.0 37.0 9.147676375112406e-41
250.0 200.0 38.0 9.147676375112406e-41
250.0 190.0 37.0 9.147676375112406e-41
250.0 180.0 37.0 9.147676375112406e-41
250.0 170.0 37.0 9.147676375112406e-41
250.0 160.0 38.0 9.147676375112406e-41
250.0 150.0 40.0 9.147676375112406e-41
250.0 140.0 38.0 9.147676375112406e-41
250.0 130.0 40.0 9.147676375112406e-41
250.0 120.0 41.0 9.147676375112406e-41
250.0 110.0 40.0 9.147676375112406e-41
250.0 100.0 40.0 9.147676375112406e-41
250.0 90.0 40.0 9.147676375112406e-41
250.0 80.0 40.0 9.147676375112406e-41
250.0 70.0 40.0 9.147676375112406e-41
250.0 60.0 36.0 9.147676375112406e-41
250.0 50.0 35.0 9.147676375112406e-41
250.0 40.0 36.0 9.147676375112406e-41
250.0 30.0 34.0 9.147676375112406e-41
250.0 20.0 31.0 9.147676375112406e-41
250.0 10.0 29.0 9.147676375112406e-41
250.0 0.0 28.0 9.147676375112406e-41
260.0 0.0 27.0 9.147676375112406e-41
260.0 10.0 28.0 9.147676375112406e-41
260.0 20.0 33.0 9.147676375112406e-41
260.0 30.0 34.0 9.147676375112406e-41
260.0 40.0 35.0 9.147676375112406e-41
260.0 50.0 35.0 9.147676375112406e-41
260.0 60.0 36.0 9.147676375112406e-41
260.0 70.0 35.0 9.147676375112406e-41
260.0 80.0 36.0 9.147676375112406e-41
260.0 90.0 37.0 9.147676375112406e-41
260.0 100.0 37.0 9.147676375112406e-41
260.0 110.0 40.0 9.147676375112406e-41
260.0 120.0 40.0 9.147676375112406e-41
260.0 130.0 38.0 9.147676375112406e-41
260.0 140.0 37.0 9.147676375112406e-41
260.0 150.0 37.0 9.147676375112406e-41
260.0 160.0 36.0 9.147676375112406e-41
260.0 170.0 36.0 9.147676375112406e-41
260.0 180.0 35.0 9.147676375112406e-41
260.0 190.0 37.0 9.147676375112406e-41
260.0 200.0 37.0 9.147676375112406e-41
260.0 210.0 38.0 9.147676375112406e-41
260.0 220.0 37.0 9.147676375112406e-41
260.0 230.0 38.0 9.147676375112406e-41
260.0 240.0 38.0 9.147676375112406e-41
260.0 250.0 38.0 9.147676375112406e-41
260.0 260.0 40.0 9.147676375112406e-41
260.0 270.0 41.0 9.147676375112406e-41
260.0 280.0 40.0 9.147676375112406e-41
260.0 290.0 38.0 9.147676375112406e-41
260.0 300.0 37.0 9.147676375112406e-41
260.0 310.0 36.0 9.147676375112406e-41
260.0 320.0 36.0 9.147676375112406e-41
260.0 330.0 36.0 9.147676375112406e-41
260.0 340.0 35.0 9.147676375112406e-41
260.0 350.0 36.0 9.147676375112406e-41
260.0 360.0 36.0 9.147676375112406e-41
260.0 370.0 35.0 9.147676375112406e-41
260.0 380.0 37.0 9.147676375112406e-41
260.0 390.0 35.0 9.147676375112406e-41
260.0 400.0 35.0 9.147676375112406e-41
260.0 410.0 35.0 9.147676375112406e-41
260.0 420.0 33.0 9.147676375112406e-41
260.0 430.0 31.0 9.147676375112406e-41
260.0 440.0 29.0 9.147676375112406e-41
260.0 450.0 26.0 9.147676375112406e-41
260.0 460.0 24.0 9.147676375112406e-41
260.0 470.0 23.0 9.147676375112406e-41
260.0 480.0 23.0 9.147676375112406e-41
260.0 490.0 23.0 9.147676375112406e-41
260.0 500.0 20.0 9.147676375112406e-41
270.0 500.0 21.0 9.147676375112406e-41
270.0 490.0 23.0 9.147676375112406e-41
270.0 480.0 24.0 9.147676375112406e-41
270.0 470.0 25.0 9.147676375112406e-41
270.0 460.0 27.0 9.147676375112406e-41
270.0 450.0 29.0 9.147676375112406e-41
270.0 440.0 31.0 9.147676375112406e-41
270.0 430.0 32.0 9.147676375112406e-41
270.0 420.0 34.0 9.147676375112406e-41
270.0 410.0 34.0 9.147676375112406e-41
270.0 400.0 35.0 9.147676375112406e-41
270.0 390.0 35.0 9.147676375112406e-41
270.0 380.0 35.0 9.147676375112406e-41
270.0 370.0 35.0 9.147676375112406e-41
270.0 360.0 36.0 9.147676375112406e-41
270.0 350.0 35.0 9.147676375112406e-41
270.0 340.0 36.0 9.147676375112406e-41
270.0 330.0 36.0 9.147676375112406e-41
270.0 320.0 37.0 9.147676375112406e-41
270.0 310.0 37.0 9.147676375112406e-41
270.0 300.0 38.0 9.147676375112406e-41
270.0 290.0 40.0 9.147676375112406e-41
270.0 280.0 41.0 9.147676375112406e-41
270.0 270.0 40.0 9.147676375112406e-41
270.0 260.0 41.0 9.147676375112406e-41
270.0 250.0 40.0 9.147676375112406e-41
270.0 240.0 38.0 9.147676375112406e-41
270.0 230.0 38.0 9.147676375112406e-41
270.0 220.0 37.0 9.147676375112406e-41
270.0 210.0 37.0 9.147676375112406e-41
270.0 200.0 36.0 9.147676375112406e-41
270.0 190.0 36.0 9.147676375112406e-41
270.0 180.0 37.0 9.147676375112406e-41
270.0 170.0 37.0 9.147676375112406e-41
270.0 160.0 38.0 9.147676375112406e-41
270.0 150.0 38.0 9.147676375112406e-41
270.0 140.0 38.0 9.147676375112406e-41
270.0 130.0 38.0 9.147676375112406e-41
270.0 120.0 40.0 9.147676375112406e-41
270.0 110.0 40.0 9.147676375112406e-41
270.0 100.0 38.0 9.147676375112406e-41
270.0 90.0 37.0 9.147676375112406e-41
270.0 80.0 37.0 9.147676375112406e-41
270.0 70.0 37.0 9.147676375112406e-41
270.0 60.0 36.0 9.147676375112406e-41
270.0 50.0 36.0 9.147676375112406e-41
270.0 40.0 35.0 9.147676375112406e-41
270.0 30.0 34.0 9.147676375112406e-41
270.0 20.0 33.0 9.147676375112406e-41
270.0 10.0 34.0 9.147676375112406e-41
270.0 0.0 33.0 9.147676375112406e-41
280.0 0.0 32.0 9.147676375112406e-41
280.0 10.0 32.0 9.147676375112406e-41
280.0 20.0 31.0 9.147676375112406e-41
280.0 30.0 33.0 9.147676375112406e-41
280.0 40.0 32.0 9.147676375112406e-41
280.0 50.0 34.0 9.147676375112406e-41
280.0 60.0 34.0 9.147676375112406e-41
280.0 70.0 34.0 9.147676375112406e-41
280.0 80.0 35.0 9.147676375112406e-41
280.0 90.0 36.0 9.147676375112406e-41
280.0 100.0 36.0 9.147676375112406e-41
280.0 110.0 36.0 9.147676375112406e-41
280.0 120.0 37.0 9.147676375112406e-41
280.0 130.0 36.0 9.147676375112406e-41
280.0 140.0 36.0 9.147676375112406e-41
280.0 150.0 36.0 9.147676375112406e-41
280.0 160.0 36.0 9.147676375112406e-41
280.0 170.0 35.0 9.147676375112406e-41
280.0 180.0 35.0 9.147676375112406e-41
280.0 190.0 36.0 9.147676375112406e-41
280.0 200.0 36.0 9.147676375112406e-41
280.0 210.0 36.0 9.147676375112406e-41
280.0 220.0 36.0 9.147676375112406e-41
280.0 230.0 38.0 9.147676375112406e-41
280.0 240.0 38.0 9.147676375112406e-41
280.0 250.0 40.0 9.147676375112406e-41
280.0 260.0 41.0 9.147676375112406e-41
280.0 270.0 40.0 9.147676375112406e-41
280.0 280.0 40.0 9.147676375112406e-41
280.0 290.0 38.0 9.147676375112406e-41
280.0 300.0 37.0 9.147676375112406e-41
280.0 310.0 37.0 9.147676375112406e-41
280.0 320.0 36.0 9.147676375112406e-41
280.0 330.0 35.0 9.147676375112406e-41
280.0 340.0 35.0 9.147676375112406e-41
280.0 350.0 35.0 9.147676375112406e-41
280.0 360.0 35.0 9.147676375112406e-41
280.0 370.0 35.0 9.147676375112406e-41
280.0 380.0 35.0 9.147676375112406e-41
280.0 390.0 34.0 9.147676375112406e-41
280.0 400.0 35.0 9.147676375112406e-41
280.0 410.0 34.0 9.147676375112406e-41
280.0 420.0 33.0 9.147676375112406e-41
280.0 430.0 32.0 9.147676375112406e-41
280.0 440.0 32.0 9.147676375112406e-41
280.0 450.0 30.0 9.147676375112406e-41
280.0 460.0 28.0 9.147676375112406e-41
280.0 470.0 29.0 9.147676375112406e-41
280.0 480.0 27.0 9.147676375112406e-41
280.0 490.0 25.0 9.147676375112406e-41
280.0 500.0 23.0 9.147676375112406e-41
290.0 500.0 24.0 9.147676375112406e-41
290.0 490.0 24.0 9.147676375112406e-41
290.0 480.0 24.0 9.147676375112406e-41
290.0 470.0 25.0 9.147676375112406e-41
290.0 460.0 25.0 9.147676375112406e-41
290.0 450.0 28.0 9.147676375112406e-41
290.0 440.0 28.0 9.147676375112406e-41
290.0 430.0 30.0 9.147676375112406e-41
290.0 420.0 30.0 9.147676375112406e-41
290.0 410.0 32.0 9.147676375112406e-41
290.0 400.0 32.0 9.147676375112406e-41
290.0 390.0 34.0 9.147676375112406e-41
290.0 380.0 34.0 9.147676375112406e-41
290.0 370.0 34.0 9.147676375112406e-41
290.0 360.0 34.0 9.147676375112406e-41
290.0 350.0 34.0 9.147676375112406e-41
290.0 340.0 35.0 9.147676375112406e-41
290.0 330.0 36.0 9.147676375112406e-41
290.0 320.0 36.0 9.147676375112406e-41
290.0 310.0 37.0 9.147676375112406e-41
290.0 300.0 36.0 9.147676375112406e-41
