# .PCD v.7 - Point Cloud Data file format
VERSION .7
FIELDS x y z rgb
SIZE 4 4 4 4
TYPE F F F F
COUNT 1 1 1 1
WIDTH 642
HEIGHT 1
VIEWPOINT 0 0 0 1 0 0 0
POINTS 642
DATA ascii
10.0 60.0 2.0 9.147676375112406e-41
10.0 40.0 4.0 9.147676375112406e-41
10.0 30.0 2.0 9.147676375112406e-41
30.0 40.0 4.0 9.147676375112406e-41
30.0 30.0 4.0 9.147676375112406e-41
40.0 70.0 2.0 9.147676375112406e-41
40.0 80.0 2.0 9.147676375112406e-41
40.0 90.0 2.0 9.147676375112406e-41
40.0 100.0 2.0 9.147676375112406e-41
40.0 180.0 13.0 9.147676375112406e-41
40.0 190.0 14.0 9.147676375112406e-41
40.0 200.0 18.0 9.147676375112406e-41
40.0 210.0 15.0 9.147676375112406e-41
40.0 220.0 19.0 9.147676375112406e-41
40.0 230.0 17.0 9.147676375112406e-41
40.0 240.0 16.0 9.147676375112406e-41
40.0 250.0 17.0 9.147676375112406e-41
40.0 260.0 18.0 9.147676375112406e-41
40.0 270.0 16.0 9.147676375112406e-41
40.0 280.0 19.0 9.147676375112406e-41
40.0 290.0 17.0 9.147676375112406e-41
40.0 300.0 18.0 9.147676375112406e-41
40.0 310.0 19.0 9.147676375112406e-41
40.0 320.0 19.0 9.147676375112406e-41
40.0 330.0 18.0 9.147676375112406e-41
40.0 340.0 19.0 9.147676375112406e-41
40.0 350.0 18.0 9.147676375112406e-41
40.0 360.0 18.0 9.147676375112406e-41
40.0 370.0 19.0 9.147676375112406e-41
40.0 380.0 18.0 9.147676375112406e-41
40.0 390.0 21.0 9.147676375112406e-41
40.0 400.0 22.0 9.147676375112406e-41
40.0 410.0 19.0 9.147676375112406e-41
40.0 420.0 19.0 9.147676375112406e-41
40.0 430.0 21.0 9.147676375112406e-41
40.0 440.0 21.0 9.147676375112406e-41
40.0 450.0 19.0 9.147676375112406e-41
40.0 460.0 18.0 9.147676375112406e-41
40.0 470.0 19.0 9.147676375112406e-41
40.0 480.0 18.0 9.147676375112406e-41
40.0 490.0 15.0 9.147676375112406e-41
40.0 500.0 14.0 9.147676375112406e-41
50.0 500.0 13.0 9.147676375112406e-41
50.0 490.0 21.0 9.147676375112406e-41
50.0 480.0 19.0 9.147676375112406e-41
50.0 470.0 21.0 9.147676375112406e-41
50.0 460.0 21.0 9.147676375112406e-41
50.0 450.0 21.0 9.147676375112406e-41
50.0 440.0 22.0 9.147676375112406e-41
50.0 430.0 21.0 9.147676375112406e-41
50.0 420.0 23.0 9.147676375112406e-41
50.0 410.0 22.0 9.147676375112406e-41
50.0 400.0 23.0 9.147676375112406e-41
50.0 390.0 23.0 9.147676375112406e-41
50.0 380.0 23.0 9.147676375112406e-41
50.0 370.0 23.0 9.147676375112406e-41
50.0 360.0 23.0 9.147676375112406e-41
50.0 350.0 24.0 9.147676375112406e-41
50.0 340.0 24.0 9.147676375112406e-41
50.0 330.0 22.0 9.147676375112406e-41
50.0 320.0 22.0 9.147676375112406e-41
50.0 310.0 23.0 9.147676375112406e-41
50.0 300.0 22.0 9.147676375112406e-41
50.0 290.0 23.0 9.147676375112406e-41
50.0 280.0 21.0 9.147676375112406e-41
50.0 270.0 22.0 9.147676375112406e-41
50.0 260.0 23.0 9.147676375112406e-41
50.0 250.0 22.0 9.147676375112406e-41
50.0 240.0 22.0 9.147676375112406e-41
50.0 230.0 23.0 9.147676375112406e-41
50.0 220.0 24.0 9.147676375112406e-41
50.0 210.0 26.0 9.147676375112406e-41
50.0 200.0 28.0 9.147676375112406e-41
50.0 190.0 24.0 9.147676375112406e-41
50.0 180.0 25.0 9.147676375112406e-41
50.0 170.0 9.0 9.147676375112406e-41
50.0 90.0 2.0 9.147676375112406e-41
50.0 50.0 4.0 9.147676375112406e-41
50.0 40.0 4.0 9.147676375112406e-41
50.0 30.0 2.0 9.147676375112406e-41
50.0 20.0 4.0 9.147676375112406e-41
60.0 40.0 4.0 9.147676375112406e-41
60.0 60.0 2.0 9.147676375112406e-41
60.0 70.0 2.0 9.147676375112406e-41
60.0 90.0 4.0 9.147676375112406e-41
60.0 170.0 7.0 9.147676375112406e-41
60.0 180.0 19.0 9.147676375112406e-41
60.0 190.0 24.0 9.147676375112406e-41
60.0 200.0 25.0 9.147676375112406e-41
60.0 210.0 27.0 9.147676375112406e-41
60.0 220.0 30.0 9.147676375112406e-41
60.0 230.0 25.0 9.147676375112406e-41
60.0 240.0 22.0 9.147676375112406e-41
60.0 250.0 22.0 9.147676375112406e-41
60.0 260.0 22.0 9.147676375112406e-41
60.0 270.0 23.0 9.147676375112406e-41
60.0 280.0 22.0 9.147676375112406e-41
60.0 290.0 21.0 9.147676375112406e-41
60.0 300.0 23.0 9.147676375112406e-41
60.0 310.0 24.0 9.147676375112406e-41
60.0 320.0 22.0 9.147676375112406e-41
60.0 330.0 22.0 9.147676375112406e-41
60.0 340.0 24.0 9.147676375112406e-41
60.0 350.0 22.0 9.147676375112406e-41
60.0 360.0 22.0 9.147676375112406e-41
60.0 370.0 24.0 9.147676375112406e-41
60.0 380.0 22.0 9.147676375112406e-41
60.0 390.0 23.0 9.147676375112406e-41
60.0 400.0 23.0 9.147676375112406e-41
60.0 410.0 24.0 9.147676375112406e-41
60.0 420.0 22.0 9.147676375112406e-41
60.0 430.0 22.0 9.147676375112406e-41
60.0 440.0 22.0 9.147676375112406e-41
60.0 450.0 22.0 9.147676375112406e-41
60.0 460.0 22.0 9.147676375112406e-41
60.0 470.0 22.0 9.147676375112406e-41
60.0 480.0 21.0 9.147676375112406e-41
60.0 490.0 19.0 9.147676375112406e-41
60.0 500.0 18.0 9.147676375112406e-41
70.0 500.0 19.0 9.147676375112406e-41
70.0 490.0 18.0 9.147676375112406e-41
70.0 480.0 21.0 9.147676375112406e-41
70.0 470.0 21.0 9.147676375112406e-41
70.0 460.0 19.0 9.147676375112406e-41
70.0 450.0 22.0 9.147676375112406e-41
70.0 440.0 23.0 9.147676375112406e-41
70.0 430.0 22.0 9.147676375112406e-41
70.0 420.0 23.0 9.147676375112406e-41
70.0 410.0 22.0 9.147676375112406e-41
70.0 400.0 23.0 9.147676375112406e-41
70.0 390.0 23.0 9.147676375112406e-41
70.0 380.0 22.0 9.147676375112406e-41
70.0 370.0 22.0 9.147676375112406e-41
70.0 360.0 22.0 9.147676375112406e-41
70.0 350.0 23.0 9.147676375112406e-41
70.0 340.0 22.0 9.147676375112406e-41
70.0 330.0 23.0 9.147676375112406e-41
70.0 320.0 23.0 9.147676375112406e-41
70.0 310.0 22.0 9.147676375112406e-41
70.0 300.0 23.0 9.147676375112406e-41
70.0 290.0 24.0 9.147676375112406e-41
70.0 280.0 22.0 9.147676375112406e-41
70.0 270.0 23.0 9.147676375112406e-41
70.0 260.0 23.0 9.147676375112406e-41
70.0 250.0 22.0 9.147676375112406e-41
70.0 240.0 24.0 9.147676375112406e-41
70.0 230.0 24.0 9.147676375112406e-41
70.0 220.0 26.0 9.147676375112406e-41
70.0 210.0 33.0 9.147676375112406e-41
70.0 200.0 26.0 9.147676375112406e-41
70.0 190.0 24.0 9.147676375112406e-41
70.0 180.0 21.0 9.147676375112406e-41
70.0 170.0 8.0 9.147676375112406e-41
70.0 90.0 2.0 9.147676375112406e-41
70.0 60.0 2.0 9.147676375112406e-41
70.0 50.0 4.0 9.147676375112406e-41
70.0 40.0 4.0 9.147676375112406e-41
70.0 30.0 2.0 9.147676375112406e-41
80.0 40.0 2.0 9.147676375112406e-41
80.0 50.0 2.0 9.147676375112406e-41
80.0 60.0 4.0 9.147676375112406e-41
80.0 70.0 2.0 9.147676375112406e-41
80.0 80.0 2.0 9.147676375112406e-41
80.0 90.0 4.0 9.147676375112406e-41
80.0 100.0 4.0 9.147676375112406e-41
80.0 110.0 2.0 9.147676375112406e-41
80.0 120.0 2.0 9.147676375112406e-41
80.0 170.0 9.0 9.147676375112406e-41
80.0 180.0 18.0 9.147676375112406e-41
80.0 190.0 28.0 9.147676375112406e-41
80.0 200.0 25.0 9.147676375112406e-41
80.0 210.0 25.0 9.147676375112406e-41
80.0 220.0 24.0 9.147676375112406e-41
80.0 230.0 25.0 9.147676375112406e-41
80.0 240.0 26.0 9.147676375112406e-41
80.0 250.0 24.0 9.147676375112406e-41
80.0 260.0 22.0 9.147676375112406e-41
80.0 270.0 19.0 9.147676375112406e-41
80.0 280.0 21.0 9.147676375112406e-41
80.0 290.0 21.0 9.147676375112406e-41
80.0 300.0 22.0 9.147676375112406e-41
80.0 310.0 22.0 9.147676375112406e-41
80.0 320.0 22.0 9.147676375112406e-41
80.0 330.0 23.0 9.147676375112406e-41
80.0 340.0 23.0 9.147676375112406e-41
80.0 350.0 23.0 9.147676375112406e-41
80.0 360.0 24.0 9.147676375112406e-41
80.0 370.0 23.0 9.147676375112406e-41
80.0 380.0 22.0 9.147676375112406e-41
80.0 390.0 23.0 9.147676375112406e-41
80.0 400.0 22.0 9.147676375112406e-41
80.0 410.0 21.0 9.147676375112406e-41
80.0 420.0 22.0 9.147676375112406e-41
80.0 430.0 22.0 9.147676375112406e-41
80.0 440.0 21.0 9.147676375112406e-41
80.0 450.0 23.0 9.147676375112406e-41
80.0 460.0 23.0 9.147676375112406e-41
80.0 470.0 18.0 9.147676375112406e-41
80.0 480.0 18.0 9.147676375112406e-41
80.0 490.0 19.0 9.147676375112406e-41
80.0 500.0 18.0 9.147676375112406e-41
90.0 500.0 17.0 9.147676375112406e-41
90.0 490.0 18.0 9.147676375112406e-41
90.0 480.0 19.0 9.147676375112406e-41
90.0 470.0 18.0 9.147676375112406e-41
90.0 460.0 19.0 9.147676375112406e-41
90.0 450.0 22.0 9.147676375112406e-41
90.0 440.0 24.0 9.147676375112406e-41
90.0 430.0 22.0 9.147676375112406e-41
90.0 420.0 23.0 9.147676375112406e-41
90.0 410.0 23.0 9.147676375112406e-41
90.0 400.0 23.0 9.147676375112406e-41
90.0 390.0 22.0 9.147676375112406e-41
90.0 380.0 23.0 9.147676375112406e-41
90.0 370.0 22.0 9.147676375112406e-41
90.0 360.0 23.0 9.147676375112406e-41
90.0 350.0 22.0 9.147676375112406e-41
90.0 340.0 24.0 9.147676375112406e-41
90.0 330.0 23.0 9.147676375112406e-41
90.0 320.0 24.0 9.147676375112406e-41
90.0 310.0 22.0 9.147676375112406e-41
90.0 300.0 23.0 9.147676375112406e-41
90.0 290.0 23.0 9.147676375112406e-41
90.0 280.0 23.0 9.147676375112406e-41
90.0 270.0 21.0 9.147676375112406e-41
90.0 260.0 27.0 9.147676375112406e-41
90.0 250.0 29.0 9.147676375112406e-41
90.0 240.0 31.0 9.147676375112406e-41
90.0 230.0 29.0 9.147676375112406e-41
90.0 220.0 26.0 9.147676375112406e-41
90.0 210.0 25.0 9.147676375112406e-41
90.0 200.0 27.0 9.147676375112406e-41
90.0 190.0 25.0 9.147676375112406e-41
90.0 180.0 26.0 9.147676375112406e-41
90.0 170.0 16.0 9.147676375112406e-41
90.0 90.0 2.0 9.147676375112406e-41
90.0 70.0 2.0 9.147676375112406e-41
90.0 60.0 2.0 9.147676375112406e-41
90.0 50.0 5.0 9.147676375112406e-41
90.0 40.0 4.0 9.147676375112406e-41
90.0 30.0 4.0 9.147676375112406e-41
90.0 20.0 2.0 9.147676375112406e-41
100.0 50.0 2.0 9.147676375112406e-41
100.0 60.0 2.0 9.147676375112406e-41
100.0 70.0 2.0 9.147676375112406e-41
100.0 80.0 2.0 9.147676375112406e-41
100.0 90.0 2.0 9.147676375112406e-41
100.0 110.0 3.0 9.147676375112406e-41
100.0 120.0 3.0 9.147676375112406e-41
100.0 160.0 3.0 9.147676375112406e-41
100.0 170.0 17.0 9.147676375112406e-41
100.0 180.0 27.0 9.147676375112406e-41
100.0 190.0 25.0 9.147676375112406e-41
100.0 200.0 25.0 9.147676375112406e-41
100.0 210.0 25.0 9.147676375112406e-41
100.0 220.0 31.0 9.147676375112406e-41
100.0 230.0 24.0 9.147676375112406e-41
100.0 240.0 23.0 9.147676375112406e-41
100.0 250.0 23.0 9.147676375112406e-41
100.0 260.0 21.0 9.147676375112406e-41
100.0 270.0 22.0 9.147676375112406e-41
100.0 280.0 22.0 9.147676375112406e-41
100.0 290.0 22.0 9.147676375112406e-41
100.0 300.0 22.0 9.147676375112406e-41
100.0 310.0 22.0 9.147676375112406e-41
100.0 320.0 22.0 9.147676375112406e-41
100.0 330.0 22.0 9.147676375112406e-41
100.0 340.0 23.0 9.147676375112406e-41
100.0 350.0 22.0 9.147676375112406e-41
100.0 360.0 22.0 9.147676375112406e-41
100.0 370.0 23.0 9.147676375112406e-41
100.0 380.0 23.0 9.147676375112406e-41
100.0 390.0 22.0 9.147676375112406e-41
100.0 400.0 22.0 9.147676375112406e-41
100.0 410.0 22.0 9.147676375112406e-41
100.0 420.0 22.0 9.147676375112406e-41
100.0 430.0 22.0 9.147676375112406e-41
100.0 440.0 23.0 9.147676375112406e-41
100.0 450.0 21.0 9.147676375112406e-41
100.0 460.0 22.0 9.147676375112406e-41
100.0 470.0 21.0 9.147676375112406e-41
100.0 480.0 21.0 9.147676375112406e-41
100.0 490.0 21.0 9.147676375112406e-41
100.0 500.0 19.0 9.147676375112406e-41
110.0 500.0 17.0 9.147676375112406e-41
110.0 490.0 19.0 9.147676375112406e-41
110.0 480.0 19.0 9.147676375112406e-41
110.0 470.0 18.0 9.147676375112406e-41
110.0 460.0 21.0 9.147676375112406e-41
110.0 450.0 21.0 9.147676375112406e-41
110.0 440.0 22.0 9.147676375112406e-41
110.0 430.0 23.0 9.147676375112406e-41
110.0 420.0 23.0 9.147676375112406e-41
110.0 410.0 23.0 9.147676375112406e-41
110.0 400.0 24.0 9.147676375112406e-41
110.0 390.0 23.0 9.147676375112406e-41
110.0 380.0 23.0 9.147676375112406e-41
110.0 370.0 22.0 9.147676375112406e-41
110.0 360.0 23.0 9.147676375112406e-41
110.0 350.0 23.0 9.147676375112406e-41
110.0 340.0 23.0 9.147676375112406e-41
110.0 330.0 23.0 9.147676375112406e-41
110.0 320.0 24.0 9.147676375112406e-41
110.0 310.0 23.0 9.147676375112406e-41
110.0 300.0 22.0 9.147676375112406e-41
110.0 290.0 24.0 9.147676375112406e-41
110.0 280.0 23.0 9.147676375112406e-41
110.0 270.0 23.0 9.147676375112406e-41
110.0 260.0 23.0 9.147676375112406e-41
110.0 250.0 23.0 9.147676375112406e-41
110.0 240.0 25.0 9.147676375112406e-41
110.0 230.0 23.0 9.147676375112406e-41
110.0 220.0 25.0 9.147676375112406e-41
110.0 210.0 31.0 9.147676375112406e-41
110.0 200.0 28.0 9.147676375112406e-41
110.0 190.0 24.0 9.147676375112406e-41
110.0 180.0 27.0 9.147676375112406e-41
110.0 170.0 26.0 9.147676375112406e-41
110.0 160.0 18.0 9.147676375112406e-41
110.0 90.0 2.0 9.147676375112406e-41
110.0 70.0 4.0 9.147676375112406e-41
110.0 50.0 5.0 9.147676375112406e-41
110.0 40.0 4.0 9.147676375112406e-41
110.0 30.0 5.0 9.147676375112406e-41
110.0 20.0 2.0 9.147676375112406e-41
110.0 10.0 2.0 9.147676375112406e-41
120.0 40.0 2.0 9.147676375112406e-41
120.0 50.0 4.0 9.147676375112406e-41
120.0 60.0 2.0 9.147676375112406e-41
120.0 70.0 4.0 9.147676375112406e-41
120.0 80.0 2.0 9.147676375112406e-41
120.0 90.0 2.0 9.147676375112406e-41
120.0 100.0 4.0 9.147676375112406e-41
120.0 110.0 2.0 9.147676375112406e-41
120.0 120.0 2.0 9.147676375112406e-41
120.0 130.0 2.0 9.147676375112406e-41
120.0 140.0 2.0 9.147676375112406e-41
120.0 150.0 2.0 9.147676375112406e-41
120.0 160.0 19.0 9.147676375112406e-41
120.0 170.0 27.0 9.147676375112406e-41
120.0 180.0 25.0 9.147676375112406e-41
120.0 190.0 26.0 9.147676375112406e-41
120.0 200.0 26.0 9.147676375112406e-41
120.0 210.0 24.0 9.147676375112406e-41
120.0 220.0 22.0 9.147676375112406e-41
120.0 230.0 22.0 9.147676375112406e-41
120.0 240.0 24.0 9.147676375112406e-41
120.0 250.0 23.0 9.147676375112406e-41
120.0 260.0 19.0 9.147676375112406e-41
120.0 270.0 22.0 9.147676375112406e-41
120.0 280.0 24.0 9.147676375112406e-41
120.0 290.0 23.0 9.147676375112406e-41
120.0 300.0 22.0 9.147676375112406e-41
120.0 310.0 23.0 9.147676375112406e-41
120.0 320.0 23.0 9.147676375112406e-41
120.0 330.0 23.0 9.147676375112406e-41
120.0 340.0 24.0 9.147676375112406e-41
120.0 350.0 24.0 9.147676375112406e-41
120.0 360.0 24.0 9.147676375112406e-41
120.0 370.0 23.0 9.147676375112406e-41
120.0 380.0 22.0 9.147676375112406e-41
120.0 390.0 23.0 9.147676375112406e-41
120.0 400.0 23.0 9.147676375112406e-41
120.0 410.0 23.0 9.147676375112406e-41
120.0 420.0 23.0 9.147676375112406e-41
120.0 430.0 22.0 9.147676375112406e-41
120.0 440.0 23.0 9.147676375112406e-41
120.0 450.0 19.0 9.147676375112406e-41
120.0 460.0 21.0 9.147676375112406e-41
120.0 470.0 18.0 9.147676375112406e-41
120.0 480.0 21.0 9.147676375112406e-41
120.0 490.0 18.0 9.147676375112406e-41
120.0 500.0 15.0 9.147676375112406e-41
130.0 500.0 15.0 9.147676375112406e-41
130.0 490.0 6.0 9.147676375112406e-41
130.0 480.0 8.0 9.147676375112406e-41
130.0 470.0 10.0 9.147676375112406e-41
130.0 460.0 12.0 9.147676375112406e-41
130.0 450.0 19.0 9.147676375112406e-41
130.0 440.0 21.0 9.147676375112406e-41
130.0 430.0 21.0 9.147676375112406e-41
130.0 420.0 21.0 9.147676375112406e-41
130.0 410.0 22.0 9.147676375112406e-41
130.0 400.0 21.0 9.147676375112406e-41
130.0 390.0 23.0 9.147676375112406e-41
130.0 380.0 22.0 9.147676375112406e-41
130.0 370.0 22.0 9.147676375112406e-41
130.0 360.0 21.0 9.147676375112406e-41
130.0 350.0 21.0 9.147676375112406e-41
130.0 340.0 22.0 9.147676375112406e-41
130.0 330.0 19.0 9.147676375112406e-41
130.0 320.0 19.0 9.147676375112406e-41
130.0 310.0 21.0 9.147676375112406e-41
130.0 300.0 19.0 9.147676375112406e-41
130.0 290.0 22.0 9.147676375112406e-41
130.0 280.0 19.0 9.147676375112406e-41
130.0 270.0 18.0 9.147676375112406e-41
130.0 260.0 19.0 9.147676375112406e-41
130.0 250.0 19.0 9.147676375112406e-41
130.0 240.0 19.0 9.147676375112406e-41
130.0 230.0 19.0 9.147676375112406e-41
130.0 220.0 17.0 9.147676375112406e-41
130.0 210.0 17.0 9.147676375112406e-41
130.0 200.0 17.0 9.147676375112406e-41
130.0 190.0 18.0 9.147676375112406e-41
130.0 180.0 16.0 9.147676375112406e-41
130.0 170.0 14.0 9.147676375112406e-41
130.0 160.0 12.0 9.147676375112406e-41
130.0 90.0 2.0 9.147676375112406e-41
130.0 70.0 2.0 9.147676375112406e-41
130.0 60.0 2.0 9.147676375112406e-41
130.0 50.0 4.0 9.147676375112406e-41
130.0 40.0 5.0 9.147676375112406e-41
130.0 30.0 4.0 9.147676375112406e-41
130.0 20.0 2.0 9.147676375112406e-41
140.0 30.0 2.0 9.147676375112406e-41
140.0 40.0 4.0 9.147676375112406e-41
140.0 50.0 4.0 9.147676375112406e-41
140.0 60.0 2.0 9.147676375112406e-41
140.0 70.0 2.0 9.147676375112406e-41
140.0 80.0 4.0 9.147676375112406e-41
140.0 100.0 4.0 9.147676375112406e-41
140.0 110.0 4.0 9.147676375112406e-41
140.0 140.0 2.0 9.147676375112406e-41
140.0 440.0 2.0 9.147676375112406e-41
140.0 460.0 5.0 9.147676375112406e-41
140.0 470.0 6.0 9.147676375112406e-41
140.0 480.0 6.0 9.147676375112406e-41
150.0 90.0 2.0 9.147676375112406e-41
150.0 80.0 2.0 9.147676375112406e-41
150.0 70.0 2.0 9.147676375112406e-41
150.0 60.0 4.0 9.147676375112406e-41
150.0 50.0 2.0 9.147676375112406e-41
150.0 40.0 4.0 9.147676375112406e-41
150.0 30.0 4.0 9.147676375112406e-41
160.0 40.0 2.0 9.147676375112406e-41
160.0 50.0 4.0 9.147676375112406e-41
160.0 60.0 2.0 9.147676375112406e-41
160.0 70.0 2.0 9.147676375112406e-41
160.0 80.0 2.0 9.147676375112406e-41
160.0 90.0 4.0 9.147676375112406e-41
160.0 100.0 4.0 9.147676375112406e-41
160.0 120.0 2.0 9.147676375112406e-41
170.0 80.0 2.0 9.147676375112406e-41
170.0 70.0 2.0 9.147676375112406e-41
170.0 60.0 5.0 9.147676375112406e-41
170.0 50.0 5.0 9.147676375112406e-41
170.0 40.0 4.0 9.147676375112406e-41
170.0 30.0 2.0 9.147676375112406e-41
170.0 20.0 2.0 9.147676375112406e-41
180.0 40.0 2.0 9.147676375112406e-41
180.0 50.0 2.0 9.147676375112406e-41
180.0 60.0 2.0 9.147676375112406e-41
180.0 70.0 2.0 9.147676375112406e-41
180.0 80.0 5.0 9.147676375112406e-41
180.0 90.0 4.0 9.147676375112406e-41
180.0 100.0 4.0 9.147676375112406e-41
180.0 110.0 4.0 9.147676375112406e-41
180.0 120.0 2.0 9.147676375112406e-41
180.0 140.0 2.0 9.147676375112406e-41
190.0 80.0 2.0 9.147676375112406e-41
190.0 70.0 2.0 9.147676375112406e-41
190.0 60.0 4.0 9.147676375112406e-41
190.0 50.0 4.0 9.147676375112406e-41
190.0 40.0 2.0 9.147676375112406e-41
190.0 30.0 4.0 9.147676375112406e-41
200.0 70.0 4.0 9.147676375112406e-41
200.0 80.0 4.0 9.147676375112406e-41
200.0 100.0 4.0 9.147676375112406e-41
200.0 110.0 2.0 9.147676375112406e-41
200.0 120.0 2.0 9.147676375112406e-41
200.0 140.0 2.0 9.147676375112406e-41
200.0 150.0 2.0 9.147676375112406e-41
210.0 90.0 2.0 9.147676375112406e-41
210.0 80.0 4.0 9.147676375112406e-41
210.0 70.0 2.0 9.147676375112406e-41
210.0 60.0 4.0 9.147676375112406e-41
210.0 50.0 4.0 9.147676375112406e-41
210.0 40.0 4.0 9.147676375112406e-41
210.0 30.0 2.0 9.147676375112406e-41
220.0 40.0 2.0 9.147676375112406e-41
220.0 60.0 2.0 9.147676375112406e-41
220.0 70.0 2.0 9.147676375112406e-41
220.0 80.0 4.0 9.147676375112406e-41
220.0 120.0 2.0 9.147676375112406e-41
230.0 80.0 2.0 9.147676375112406e-41
230.0 70.0 2.0 9.147676375112406e-41
230.0 60.0 5.0 9.147676375112406e-41
230.0 50.0 4.0 9.147676375112406e-41
230.0 40.0 5.0 9.147676375112406e-41
230.0 30.0 4.0 9.147676375112406e-41
230.0 20.0 2.0 9.147676375112406e-41
240.0 40.0 2.0 9.147676375112406e-41
240.0 60.0 2.0 9.147676375112406e-41
240.0 70.0 4.0 9.147676375112406e-41
240.0 80.0 5.0 9.147676375112406e-41
240.0 90.0 4.0 9.147676375112406e-41
240.0 100.0 2.0 9.147676375112406e-41
240.0 110.0 4.0 9.147676375112406e-41
240.0 130.0 2.0 9.147676375112406e-41
240.0 140.0 2.0 9.147676375112406e-41
250.0 90.0 2.0 9.147676375112406e-41
250.0 70.0 4.0 9.147676375112406e-41
250.0 60.0 2.0 9.147676375112406e-41
250.0 50.0 5.0 9.147676375112406e-41
250.0 40.0 4.0 9.147676375112406e-41
250.0 30.0 4.0 9.147676375112406e-41
250.0 20.0 2.0 9.147676375112406e-41
260.0 40.0 2.0 9.147676375112406e-41
260.0 50.0 2.0 9.147676375112406e-41
260.0 70.0 4.0 9.147676375112406e-41
260.0 80.0 2.0 9.147676375112406e-41
260.0 100.0 4.0 9.147676375112406e-41
260.0 110.0 2.0 9.147676375112406e-41
260.0 130.0 2.0 9.147676375112406e-41
260.0 140.0 2.0 9.147676375112406e-41
270.0 110.0 2.0 9.147676375112406e-41
270.0 100.0 2.0 9.147676375112406e-41
270.0 90.0 2.0 9.147676375112406e-41
270.0 80.0 2.0 9.147676375112406e-41
270.0 70.0 2.0 9.147676375112406e-41
270.0 60.0 2.0 9.147676375112406e-41
270.0 50.0 4.0 9.147676375112406e-41
270.0 40.0 4.0 9.147676375112406e-41
270.0 30.0 4.0 9.147676375112406e-41
280.0 0.0 34.0 9.147676375112406e-41
280.0 10.0 35.0 9.147676375112406e-41
280.0 20.0 39.0 9.147676375112406e-41
280.0 30.0 36.0 9.147676375112406e-41
280.0 40.0 40.0 9.147676375112406e-41
280.0 50.0 38.0 9.147676375112406e-41
280.0 60.0 39.0 9.147676375112406e-41
280.0 70.0 39.0 9.147676375112406e-41
280.0 80.0 39.0 9.147676375112406e-41
280.0 90.0 39.0 9.147676375112406e-41
280.0 100.0 36.0 9.147676375112406e-41
280.0 110.0 38.0 9.147676375112406e-41
280.0 120.0 35.0 9.147676375112406e-41
280.0 130.0 34.0 9.147676375112406e-41
280.0 140.0 35.0 9.147676375112406e-41
280.0 150.0 34.0 9.147676375112406e-41
280.0 160.0 33.0 9.147676375112406e-41
280.0 170.0 32.0 9.147676375112406e-41
280.0 180.0 31.0 9.147676375112406e-41
280.0 190.0 32.0 9.147676375112406e-41
280.0 200.0 31.0 9.147676375112406e-41
280.0 210.0 32.0 9.147676375112406e-41
280.0 220.0 30.0 9.147676375112406e-41
280.0 230.0 28.0 9.147676375112406e-41
280.0 240.0 26.0 9.147676375112406e-41
280.0 250.0 28.0 9.147676375112406e-41
280.0 260.0 27.0 9.147676375112406e-41
280.0 270.0 11.0 9.147676375112406e-41
280.0 280.0 10.0 9.147676375112406e-41
280.0 290.0 7.0 9.147676375112406e-41
290.0 270.0 4.0 9.147676375112406e-41
290.0 260.0 7.0 9.147676375112406e-41
290.0 250.0 12.0 9.147676375112406e-41
290.0 240.0 23.0 9.147676375112406e-41
290.0 230.0 27.0 9.147676375112406e-41
290.0 220.0 26.0 9.147676375112406e-41
290.0 210.0 27.0 9.147676375112406e-41
290.0 200.0 30.0 9.147676375112406e-41
290.0 190.0 30.0 9.147676375112406e-41
290.0 180.0 30.0 9.147676375112406e-41
290.0 170.0 32.0 9.147676375112406e-41
290.0 160.0 33.0 9.147676375112406e-41
290.0 150.0 32.0 9.147676375112406e-41
290.0 140.0 33.0 9.147676375112406e-41
290.0 130.0 33.0 9.147676375112406e-41
290.0 120.0 34.0 9.147676375112406e-41
290.0 110.0 34.0 9.147676375112406e-41
290.0 100.0 35.0 9.147676375112406e-41
290.0 90.0 34.0 9.147676375112406e-41
290.0 80.0 36.0 9.147676375112406e-41
290.0 70.0 35.0 9.147676375112406e-41
290.0 60.0 40.0 9.147676375112406e-41
290.0 50.0 38.0 9.147676375112406e-41
290.0 40.0 39.0 9.147676375112406e-41
290.0 30.0 40.0 9.147676375112406e-41
290.0 20.0 38.0 9.147676375112406e-41
290.0 10.0 35.0 9.147676375112406e-41
290.0 0.0 35.0 9.147676375112406e-41
300.0 0.0 33.0 9.147676375112406e-41
300.0 10.0 34.0 9.147676375112406e-41
300.0 20.0 35.0 9.147676375112406e-41
300.0 30.0 34.0 9.147676375112406e-41
300.0 40.0 35.0 9.147676375112406e-41
300.0 50.0 35.0 9.147676375112406e-41
300.0 60.0 34.0 9.147676375112406e-41
300.0 70.0 34.0 9.147676375112406e-41
300.0 80.0 34.0 9.147676375112406e-41
300.0 90.0 34.0 9.147676375112406e-41
300.0 100.0 34.0 9.147676375112406e-41
300.0 110.0 33.0 9.147676375112406e-41
300.0 120.0 33.0 9.147676375112406e-41
300.0 130.0 33.0 9.147676375112406e-41
300.0 140.0 33.0 9.147676375112406e-41
300.0 150.0 30.0 9.147676375112406e-41
300.0 160.0 31.0 9.147676375112406e-41
300.0 170.0 31.0 9.147676375112406e-41
300.0 180.0 30.0 9.147676375112406e-41
300.0 190.0 28.0 9.147676375112406e-41
300.0 200.0 26.0 9.147676375112406e-41
300.0 210.0 26.0 9.147676375112406e-41
300.0 220.0 26.0 9.147676375112406e-41
300.0 230.0 25.0 9.147676375112406e-41
300.0 240.0 24.0 9.147676375112406e-41
300.0 250.0 12.0 9.147676375112406e-41
300.0 260.0 7.0 9.147676375112406e-41
300.0 270.0 6.0 9.147676375112406e-41
300.0 280.0 2.0 9.147676375112406e-41
310.0 270.0 4.0 9.147676375112406e-41
310.0 260.0 8.0 9.147676375112406e-41
310.0 250.0 11.0 9.147676375112406e-41
310.0 240.0 12.0 9.147676375112406e-41
310.0 230.0 25.0 9.147676375112406e-41
310.0 220.0 28.0 9.147676375112406e-41
310.0 210.0 27.0 9.147676375112406e-41
310.0 200.0 27.0 9.147676375112406e-41
310.0 190.0 29.0 9.147676375112406e-41
310.0 180.0 29.0 9.147676375112406e-41
310.0 170.0 30.0 9.147676375112406e-41
310.0 160.0 33.0 9.147676375112406e-41
310.0 150.0 32.0 9.147676375112406e-41
310.0 140.0 34.0 9.147676375112406e-41
310.0 130.0 34.0 9.147676375112406e-41
310.0 120.0 35.0 9.147676375112406e-41
310.0 100.0 2.0 9.147676375112406e-41
310.0 90.0 2.0 9.147676375112406e-41
310.0 70.0 4.0 9.147676375112406e-41
310.0 60.0 4.0 9.147676375112406e-41
310.0 50.0 5.0 9.147676375112406e-41
310.0 40.0 4.0 9.147676375112406e-41
310.0 30.0 2.0 9.147676375112406e-41
320.0 50.0 2.0 9.147676375112406e-41
320.0 70.0 4.0 9.147676375112406e-41
320.0 80.0 2.0 9.147676375112406e-41
320.0 90.0 4.0 9.147676375112406e-41
320.0 100.0 2.0 9.147676375112406e-41
320.0 110.0 2.0 9.147676375112406e-41
320.0 120.0 4.0 9.147676375112406e-41
