# .PCD v.7 - Point Cloud Data file format
VERSION .7
FIELDS x y z rgb
SIZE 4 4 4 4
TYPE F F F F
COUNT 1 1 1 1
WIDTH 1021
HEIGHT 1
VIEWPOINT 0 0 0 1 0 0 0
POINTS 1021
DATA ascii
0.0 90.0 3.0 9.147676375112406e-41
0.0 100.0 4.0 9.147676375112406e-41
0.0 110.0 9.0 9.147676375112406e-41
0.0 120.0 7.0 9.147676375112406e-41
0.0 130.0 9.0 9.147676375112406e-41
0.0 140.0 10.0 9.147676375112406e-41
0.0 150.0 10.0 9.147676375112406e-41
0.0 160.0 11.0 9.147676375112406e-41
0.0 170.0 11.0 9.147676375112406e-41
0.0 180.0 11.0 9.147676375112406e-41
0.0 190.0 14.0 9.147676375112406e-41
0.0 200.0 13.0 9.147676375112406e-41
0.0 210.0 13.0 9.147676375112406e-41
0.0 220.0 13.0 9.147676375112406e-41
0.0 230.0 13.0 9.147676375112406e-41
0.0 240.0 13.0 9.147676375112406e-41
0.0 250.0 13.0 9.147676375112406e-41
0.0 260.0 13.0 9.147676375112406e-41
0.0 270.0 13.0 9.147676375112406e-41
0.0 280.0 14.0 9.147676375112406e-41
0.0 290.0 14.0 9.147676375112406e-41
0.0 300.0 14.0 9.147676375112406e-41
0.0 310.0 14.0 9.147676375112406e-41
0.0 320.0 13.0 9.147676375112406e-41
0.0 330.0 9.0 9.147676375112406e-41
0.0 340.0 5.0 9.147676375112406e-41
0.0 350.0 5.0 9.147676375112406e-41
0.0 360.0 6.0 9.147676375112406e-41
0.0 370.0 4.0 9.147676375112406e-41
0.0 380.0 2.0 9.147676375112406e-41
0.0 390.0 2.0 9.147676375112406e-41
10.0 460.0 3.0 9.147676375112406e-41
10.0 450.0 6.0 9.147676375112406e-41
10.0 440.0 6.0 9.147676375112406e-41
10.0 430.0 5.0 9.147676375112406e-41
10.0 420.0 8.0 9.147676375112406e-41
10.0 410.0 8.0 9.147676375112406e-41
10.0 400.0 10.0 9.147676375112406e-41
10.0 390.0 13.0 9.147676375112406e-41
10.0 380.0 15.0 9.147676375112406e-41
10.0 370.0 15.0 9.147676375112406e-41
10.0 360.0 16.0 9.147676375112406e-41
10.0 350.0 19.0 9.147676375112406e-41
10.0 340.0 21.0 9.147676375112406e-41
10.0 330.0 21.0 9.147676375112406e-41
10.0 320.0 22.0 9.147676375112406e-41
10.0 310.0 22.0 9.147676375112406e-41
10.0 300.0 22.0 9.147676375112406e-41
10.0 290.0 22.0 9.147676375112406e-41
10.0 280.0 23.0 9.147676375112406e-41
10.0 270.0 23.0 9.147676375112406e-41
10.0 260.0 22.0 9.147676375112406e-41
10.0 250.0 22.0 9.147676375112406e-41
10.0 240.0 22.0 9.147676375112406e-41
10.0 230.0 22.0 9.147676375112406e-41
10.0 220.0 21.0 9.147676375112406e-41
10.0 210.0 21.0 9.147676375112406e-41
10.0 200.0 21.0 9.147676375112406e-41
10.0 190.0 21.0 9.147676375112406e-41
10.0 180.0 21.0 9.147676375112406e-41
10.0 170.0 22.0 9.147676375112406e-41
10.0 160.0 21.0 9.147676375112406e-41
10.0 150.0 21.0 9.147676375112406e-41
10.0 140.0 20.0 9.147676375112406e-41
10.0 130.0 20.0 9.147676375112406e-41
10.0 120.0 18.0 9.147676375112406e-41
10.0 110.0 16.0 9.147676375112406e-41
10.0 100.0 14.0 9.147676375112406e-41
10.0 90.0 13.0 9.147676375112406e-41
10.0 80.0 11.0 9.147676375112406e-41
10.0 70.0 10.0 9.147676375112406e-41
10.0 60.0 7.0 9.147676375112406e-41
10.0 50.0 2.0 9.147676375112406e-41
20.0 30.0 9.0 9.147676375112406e-41
20.0 40.0 11.0 9.147676375112406e-41
20.0 50.0 16.0 9.147676375112406e-41
20.0 60.0 19.0 9.147676375112406e-41
20.0 70.0 20.0 9.147676375112406e-41
20.0 80.0 22.0 9.147676375112406e-41
20.0 90.0 24.0 9.147676375112406e-41
20.0 100.0 25.0 9.147676375112406e-41
20.0 110.0 26.0 9.147676375112406e-41
20.0 120.0 26.0 9.147676375112406e-41
20.0 130.0 28.0 9.147676375112406e-41
20.0 140.0 28.0 9.147676375112406e-41
20.0 150.0 27.0 9.147676375112406e-41
20.0 160.0 27.0 9.147676375112406e-41
20.0 170.0 28.0 9.147676375112406e-41
20.0 180.0 30.0 9.147676375112406e-41
20.0 190.0 30.0 9.147676375112406e-41
20.0 200.0 30.0 9.147676375112406e-41
20.0 210.0 30.0 9.147676375112406e-41
20.0 220.0 30.0 9.147676375112406e-41
20.0 230.0 30.0 9.147676375112406e-41
20.0 240.0 28.0 9.147676375112406e-41
20.0 250.0 27.0 9.147676375112406e-41
20.0 260.0 31.0 9.147676375112406e-41
20.0 270.0 30.0 9.147676375112406e-41
20.0 280.0 32.0 9.147676375112406e-41
20.0 290.0 30.0 9.147676375112406e-41
20.0 300.0 30.0 9.147676375112406e-41
20.0 310.0 31.0 9.147676375112406e-41
20.0 320.0 31.0 9.147676375112406e-41
20.0 330.0 27.0 9.147676375112406e-41
20.0 340.0 26.0 9.147676375112406e-41
20.0 350.0 23.0 9.147676375112406e-41
20.0 360.0 19.0 9.147676375112406e-41
20.0 370.0 18.0 9.147676375112406e-41
20.0 380.0 16.0 9.147676375112406e-41
20.0 390.0 13.0 9.147676375112406e-41
20.0 400.0 9.0 9.147676375112406e-41
20.0 410.0 9.0 9.147676375112406e-41
20.0 420.0 7.0 9.147676375112406e-41
20.0 430.0 5.0 9.147676375112406e-41
20.0 440.0 2.0 9.147676375112406e-41
20.0 450.0 2.0 9.147676375112406e-41
30.0 470.0 5.0 9.147676375112406e-41
30.0 460.0 6.0 9.147676375112406e-41
30.0 450.0 7.0 9.147676375112406e-41
30.0 440.0 10.0 9.147676375112406e-41
30.0 430.0 9.0 9.147676375112406e-41
30.0 420.0 13.0 9.147676375112406e-41
30.0 410.0 15.0 9.147676375112406e-41
30.0 400.0 15.0 9.147676375112406e-41
30.0 390.0 18.0 9.147676375112406e-41
30.0 380.0 20.0 9.147676375112406e-41
30.0 370.0 22.0 9.147676375112406e-41
30.0 360.0 24.0 9.147676375112406e-41
30.0 350.0 27.0 9.147676375112406e-41
30.0 340.0 30.0 9.147676375112406e-41
30.0 330.0 32.0 9.147676375112406e-41
30.0 320.0 32.0 9.147676375112406e-41
30.0 310.0 33.0 9.147676375112406e-41
30.0 300.0 32.0 9.147676375112406e-41
30.0 290.0 32.0 9.147676375112406e-41
30.0 280.0 32.0 9.147676375112406e-41
30.0 270.0 33.0 9.147676375112406e-41
30.0 260.0 32.0 9.147676375112406e-41
30.0 250.0 32.0 9.147676375112406e-41
30.0 240.0 32.0 9.147676375112406e-41
30.0 230.0 32.0 9.147676375112406e-41
30.0 220.0 32.0 9.147676375112406e-41
30.0 210.0 32.0 9.147676375112406e-41
30.0 200.0 32.0 9.147676375112406e-41
30.0 190.0 32.0 9.147676375112406e-41
30.0 180.0 32.0 9.147676375112406e-41
30.0 170.0 32.0 9.147676375112406e-41
30.0 160.0 32.0 9.147676375112406e-41
30.0 150.0 31.0 9.147676375112406e-41
30.0 140.0 31.0 9.147676375112406e-41
30.0 130.0 31.0 9.147676375112406e-41
30.0 120.0 30.0 9.147676375112406e-41
30.0 110.0 27.0 9.147676375112406e-41
30.0 100.0 25.0 9.147676375112406e-41
30.0 90.0 23.0 9.147676375112406e-41
30.0 80.0 20.0 9.147676375112406e-41
30.0 70.0 18.0 9.147676375112406e-41
30.0 60.0 16.0 9.147676375112406e-41
30.0 50.0 13.0 9.147676375112406e-41
30.0 40.0 11.0 9.147676375112406e-41
40.0 40.0 5.0 9.147676375112406e-41
40.0 50.0 14.0 9.147676375112406e-41
40.0 60.0 17.0 9.147676375112406e-41
40.0 70.0 19.0 9.147676375112406e-41
40.0 80.0 22.0 9.147676375112406e-41
40.0 90.0 24.0 9.147676375112406e-41
40.0 100.0 25.0 9.147676375112406e-41
40.0 110.0 27.0 9.147676375112406e-41
40.0 120.0 26.0 9.147676375112406e-41
40.0 130.0 28.0 9.147676375112406e-41
40.0 140.0 27.0 9.147676375112406e-41
40.0 150.0 28.0 9.147676375112406e-41
40.0 160.0 28.0 9.147676375112406e-41
40.0 170.0 27.0 9.147676375112406e-41
40.0 180.0 30.0 9.147676375112406e-41
40.0 190.0 27.0 9.147676375112406e-41
40.0 200.0 28.0 9.147676375112406e-41
40.0 210.0 31.0 9.147676375112406e-41
40.0 220.0 27.0 9.147676375112406e-41
40.0 230.0 28.0 9.147676375112406e-41
40.0 240.0 31.0 9.147676375112406e-41
40.0 250.0 28.0 9.147676375112406e-41
40.0 260.0 30.0 9.147676375112406e-41
40.0 270.0 31.0 9.147676375112406e-41
40.0 280.0 30.0 9.147676375112406e-41
40.0 290.0 31.0 9.147676375112406e-41
40.0 300.0 32.0 9.147676375112406e-41
40.0 310.0 32.0 9.147676375112406e-41
40.0 320.0 30.0 9.147676375112406e-41
40.0 330.0 30.0 9.147676375112406e-41
40.0 340.0 27.0 9.147676375112406e-41
40.0 350.0 23.0 9.147676375112406e-41
40.0 360.0 21.0 9.147676375112406e-41
40.0 370.0 19.0 9.147676375112406e-41
40.0 380.0 16.0 9.147676375112406e-41
40.0 390.0 16.0 9.147676375112406e-41
40.0 400.0 13.0 9.147676375112406e-41
40.0 410.0 8.0 9.147676375112406e-41
40.0 420.0 7.0 9.147676375112406e-41
40.0 430.0 4.0 9.147676375112406e-41
40.0 440.0 4.0 9.147676375112406e-41
40.0 450.0 2.0 9.147676375112406e-41
40.0 460.0 2.0 9.147676375112406e-41
50.0 490.0 2.0 9.147676375112406e-41
50.0 480.0 4.0 9.147676375112406e-41
50.0 470.0 5.0 9.147676375112406e-41
50.0 460.0 7.0 9.147676375112406e-41
50.0 450.0 8.0 9.147676375112406e-41
50.0 440.0 10.0 9.147676375112406e-41
50.0 430.0 10.0 9.147676375112406e-41
50.0 420.0 13.0 9.147676375112406e-41
50.0 410.0 14.0 9.147676375112406e-41
50.0 400.0 16.0 9.147676375112406e-41
50.0 390.0 18.0 9.147676375112406e-41
50.0 380.0 20.0 9.147676375112406e-41
50.0 370.0 21.0 9.147676375112406e-41
50.0 360.0 25.0 9.147676375112406e-41
50.0 350.0 28.0 9.147676375112406e-41
50.0 340.0 28.0 9.147676375112406e-41
50.0 330.0 32.0 9.147676375112406e-41
50.0 320.0 32.0 9.147676375112406e-41
50.0 310.0 33.0 9.147676375112406e-41
50.0 300.0 33.0 9.147676375112406e-41
50.0 290.0 31.0 9.147676375112406e-41
50.0 280.0 33.0 9.147676375112406e-41
50.0 270.0 33.0 9.147676375112406e-41
50.0 260.0 33.0 9.147676375112406e-41
50.0 250.0 32.0 9.147676375112406e-41
50.0 240.0 33.0 9.147676375112406e-41
50.0 230.0 32.0 9.147676375112406e-41
50.0 220.0 32.0 9.147676375112406e-41
50.0 210.0 32.0 9.147676375112406e-41
50.0 200.0 32.0 9.147676375112406e-41
50.0 190.0 33.0 9.147676375112406e-41
50.0 180.0 31.0 9.147676375112406e-41
50.0 170.0 32.0 9.147676375112406e-41
50.0 160.0 31.0 9.147676375112406e-41
50.0 150.0 32.0 9.147676375112406e-41
50.0 140.0 31.0 9.147676375112406e-41
50.0 130.0 30.0 9.147676375112406e-41
50.0 120.0 28.0 9.147676375112406e-41
50.0 110.0 26.0 9.147676375112406e-41
50.0 100.0 26.0 9.147676375112406e-41
50.0 90.0 23.0 9.147676375112406e-41
50.0 80.0 20.0 9.147676375112406e-41
50.0 70.0 19.0 9.147676375112406e-41
50.0 60.0 16.0 9.147676375112406e-41
50.0 50.0 14.0 9.147676375112406e-41
50.0 40.0 13.0 9.147676375112406e-41
50.0 30.0 3.0 9.147676375112406e-41
50.0 20.0 2.0 9.147676375112406e-41
60.0 40.0 3.0 9.147676375112406e-41
60.0 50.0 15.0 9.147676375112406e-41
60.0 60.0 16.0 9.147676375112406e-41
60.0 70.0 21.0 9.147676375112406e-41
60.0 80.0 22.0 9.147676375112406e-41
60.0 90.0 25.0 9.147676375112406e-41
60.0 100.0 27.0 9.147676375112406e-41
60.0 110.0 28.0 9.147676375112406e-41
60.0 120.0 28.0 9.147676375112406e-41
60.0 130.0 27.0 9.147676375112406e-41
60.0 140.0 30.0 9.147676375112406e-41
60.0 150.0 28.0 9.147676375112406e-41
60.0 160.0 28.0 9.147676375112406e-41
60.0 170.0 28.0 9.147676375112406e-41
60.0 180.0 30.0 9.147676375112406e-41
60.0 190.0 31.0 9.147676375112406e-41
60.0 200.0 31.0 9.147676375112406e-41
60.0 210.0 30.0 9.147676375112406e-41
60.0 220.0 28.0 9.147676375112406e-41
60.0 230.0 27.0 9.147676375112406e-41
60.0 240.0 28.0 9.147676375112406e-41
60.0 250.0 28.0 9.147676375112406e-41
60.0 260.0 31.0 9.147676375112406e-41
60.0 270.0 30.0 9.147676375112406e-41
60.0 280.0 32.0 9.147676375112406e-41
60.0 290.0 31.0 9.147676375112406e-41
60.0 300.0 32.0 9.147676375112406e-41
60.0 310.0 32.0 9.147676375112406e-41
60.0 320.0 32.0 9.147676375112406e-41
60.0 330.0 30.0 9.147676375112406e-41
60.0 340.0 26.0 9.147676375112406e-41
60.0 350.0 24.0 9.147676375112406e-41
60.0 360.0 21.0 9.147676375112406e-41
60.0 370.0 18.0 9.147676375112406e-41
60.0 380.0 18.0 9.147676375112406e-41
60.0 390.0 15.0 9.147676375112406e-41
60.0 400.0 11.0 9.147676375112406e-41
60.0 410.0 10.0 9.147676375112406e-41
60.0 420.0 8.0 9.147676375112406e-41
60.0 430.0 7.0 9.147676375112406e-41
60.0 440.0 5.0 9.147676375112406e-41
60.0 450.0 2.0 9.147676375112406e-41
60.0 460.0 3.0 9.147676375112406e-41
70.0 490.0 2.0 9.147676375112406e-41
70.0 480.0 5.0 9.147676375112406e-41
70.0 470.0 6.0 9.147676375112406e-41
70.0 460.0 6.0 9.147676375112406e-41
70.0 450.0 8.0 9.147676375112406e-41
70.0 440.0 11.0 9.147676375112406e-41
70.0 430.0 9.0 9.147676375112406e-41
70.0 420.0 13.0 9.147676375112406e-41
70.0 410.0 15.0 9.147676375112406e-41
70.0 400.0 18.0 9.147676375112406e-41
70.0 390.0 17.0 9.147676375112406e-41
70.0 380.0 20.0 9.147676375112406e-41
70.0 370.0 23.0 9.147676375112406e-41
70.0 360.0 27.0 9.147676375112406e-41
70.0 350.0 30.0 9.147676375112406e-41
70.0 340.0 31.0 9.147676375112406e-41
70.0 330.0 32.0 9.147676375112406e-41
70.0 320.0 33.0 9.147676375112406e-41
70.0 310.0 32.0 9.147676375112406e-41
70.0 300.0 32.0 9.147676375112406e-41
70.0 290.0 33.0 9.147676375112406e-41
70.0 280.0 32.0 9.147676375112406e-41
70.0 270.0 32.0 9.147676375112406e-41
70.0 260.0 33.0 9.147676375112406e-41
70.0 250.0 31.0 9.147676375112406e-41
70.0 240.0 33.0 9.147676375112406e-41
70.0 230.0 32.0 9.147676375112406e-41
70.0 220.0 32.0 9.147676375112406e-41
70.0 210.0 32.0 9.147676375112406e-41
70.0 200.0 33.0 9.147676375112406e-41
70.0 190.0 32.0 9.147676375112406e-41
70.0 180.0 32.0 9.147676375112406e-41
70.0 170.0 33.0 9.147676375112406e-41
70.0 160.0 32.0 9.147676375112406e-41
70.0 150.0 31.0 9.147676375112406e-41
70.0 140.0 31.0 9.147676375112406e-41
70.0 130.0 31.0 9.147676375112406e-41
70.0 120.0 30.0 9.147676375112406e-41
70.0 110.0 26.0 9.147676375112406e-41
70.0 100.0 25.0 9.147676375112406e-41
70.0 90.0 22.0 9.147676375112406e-41
70.0 80.0 19.0 9.147676375112406e-41
70.0 70.0 18.0 9.147676375112406e-41
70.0 60.0 15.0 9.147676375112406e-41
70.0 50.0 13.0 9.147676375112406e-41
70.0 40.0 10.0 9.147676375112406e-41
70.0 30.0 2.0 9.147676375112406e-41
80.0 50.0 14.0 9.147676375112406e-41
80.0 60.0 16.0 9.147676375112406e-41
80.0 70.0 19.0 9.147676375112406e-41
80.0 80.0 21.0 9.147676375112406e-41
80.0 90.0 23.0 9.147676375112406e-41
80.0 100.0 25.0 9.147676375112406e-41
80.0 110.0 28.0 9.147676375112406e-41
80.0 120.0 27.0 9.147676375112406e-41
80.0 130.0 28.0 9.147676375112406e-41
80.0 140.0 27.0 9.147676375112406e-41
80.0 150.0 28.0 9.147676375112406e-41
80.0 160.0 27.0 9.147676375112406e-41
80.0 170.0 28.0 9.147676375112406e-41
80.0 180.0 31.0 9.147676375112406e-41
80.0 190.0 31.0 9.147676375112406e-41
80.0 200.0 28.0 9.147676375112406e-41
80.0 210.0 30.0 9.147676375112406e-41
80.0 220.0 30.0 9.147676375112406e-41
80.0 230.0 31.0 9.147676375112406e-41
80.0 240.0 31.0 9.147676375112406e-41
80.0 250.0 30.0 9.147676375112406e-41
80.0 260.0 30.0 9.147676375112406e-41
80.0 270.0 31.0 9.147676375112406e-41
80.0 280.0 31.0 9.147676375112406e-41
80.0 290.0 32.0 9.147676375112406e-41
80.0 300.0 32.0 9.147676375112406e-41
80.0 310.0 31.0 9.147676375112406e-41
80.0 320.0 32.0 9.147676375112406e-41
80.0 330.0 31.0 9.147676375112406e-41
80.0 340.0 28.0 9.147676375112406e-41
80.0 350.0 26.0 9.147676375112406e-41
80.0 360.0 23.0 9.147676375112406e-41
80.0 370.0 19.0 9.147676375112406e-41
80.0 380.0 18.0 9.147676375112406e-41
80.0 390.0 15.0 9.147676375112406e-41
80.0 400.0 15.0 9.147676375112406e-41
80.0 410.0 11.0 9.147676375112406e-41
80.0 420.0 8.0 9.147676375112406e-41
80.0 430.0 6.0 9.147676375112406e-41
80.0 440.0 6.0 9.147676375112406e-41
80.0 450.0 3.0 9.147676375112406e-41
80.0 460.0 3.0 9.147676375112406e-41
90.0 460.0 2.0 9.147676375112406e-41
90.0 450.0 4.0 9.147676375112406e-41
90.0 440.0 7.0 9.147676375112406e-41
90.0 430.0 7.0 9.147676375112406e-41
90.0 420.0 9.0 9.147676375112406e-41
90.0 410.0 13.0 9.147676375112406e-41
90.0 400.0 15.0 9.147676375112406e-41
90.0 390.0 15.0 9.147676375112406e-41
90.0 380.0 18.0 9.147676375112406e-41
90.0 370.0 18.0 9.147676375112406e-41
90.0 360.0 22.0 9.147676375112406e-41
90.0 350.0 23.0 9.147676375112406e-41
90.0 340.0 26.0 9.147676375112406e-41
90.0 330.0 31.0 9.147676375112406e-41
90.0 320.0 32.0 9.147676375112406e-41
90.0 310.0 34.0 9.147676375112406e-41
90.0 300.0 33.0 9.147676375112406e-41
90.0 290.0 33.0 9.147676375112406e-41
90.0 280.0 32.0 9.147676375112406e-41
90.0 270.0 32.0 9.147676375112406e-41
90.0 260.0 33.0 9.147676375112406e-41
90.0 250.0 32.0 9.147676375112406e-41
90.0 240.0 32.0 9.147676375112406e-41
90.0 230.0 31.0 9.147676375112406e-41
90.0 220.0 32.0 9.147676375112406e-41
90.0 210.0 32.0 9.147676375112406e-41
90.0 200.0 32.0 9.147676375112406e-41
90.0 190.0 32.0 9.147676375112406e-41
90.0 180.0 31.0 9.147676375112406e-41
90.0 170.0 32.0 9.147676375112406e-41
90.0 160.0 32.0 9.147676375112406e-41
90.0 150.0 31.0 9.147676375112406e-41
90.0 140.0 32.0 9.147676375112406e-41
90.0 130.0 32.0 9.147676375112406e-41
90.0 120.0 31.0 9.147676375112406e-41
90.0 110.0 30.0 9.147676375112406e-41
90.0 100.0 27.0 9.147676375112406e-41
90.0 90.0 26.0 9.147676375112406e-41
90.0 80.0 23.0 9.147676375112406e-41
90.0 70.0 21.0 9.147676375112406e-41
90.0 60.0 18.0 9.147676375112406e-41
90.0 50.0 17.0 9.147676375112406e-41
90.0 40.0 14.0 9.147676375112406e-41
90.0 30.0 6.0 9.147676375112406e-41
90.0 20.0 3.0 9.147676375112406e-41
100.0 30.0 2.0 9.147676375112406e-41
100.0 40.0 15.0 9.147676375112406e-41
100.0 50.0 15.0 9.147676375112406e-41
100.0 60.0 18.0 9.147676375112406e-41
100.0 70.0 21.0 9.147676375112406e-41
100.0 80.0 22.0 9.147676375112406e-41
100.0 90.0 25.0 9.147676375112406e-41
100.0 100.0 27.0 9.147676375112406e-41
100.0 110.0 27.0 9.147676375112406e-41
100.0 120.0 27.0 9.147676375112406e-41
100.0 130.0 28.0 9.147676375112406e-41
100.0 140.0 27.0 9.147676375112406e-41
100.0 150.0 31.0 9.147676375112406e-41
100.0 160.0 31.0 9.147676375112406e-41
100.0 170.0 27.0 9.147676375112406e-41
100.0 180.0 31.0 9.147676375112406e-41
100.0 190.0 30.0 9.147676375112406e-41
100.0 200.0 30.0 9.147676375112406e-41
100.0 210.0 31.0 9.147676375112406e-41
100.0 220.0 31.0 9.147676375112406e-41
100.0 230.0 28.0 9.147676375112406e-41
100.0 240.0 32.0 9.147676375112406e-41
100.0 250.0 32.0 9.147676375112406e-41
100.0 260.0 31.0 9.147676375112406e-41
100.0 270.0 31.0 9.147676375112406e-41
100.0 280.0 32.0 9.147676375112406e-41
100.0 290.0 32.0 9.147676375112406e-41
100.0 300.0 32.0 9.147676375112406e-41
100.0 310.0 31.0 9.147676375112406e-41
100.0 320.0 31.0 9.147676375112406e-41
100.0 330.0 32.0 9.147676375112406e-41
100.0 340.0 28.0 9.147676375112406e-41
100.0 350.0 27.0 9.147676375112406e-41
100.0 360.0 23.0 9.147676375112406e-41
100.0 370.0 17.0 9.147676375112406e-41
100.0 380.0 15.0 9.147676375112406e-41
100.0 390.0 15.0 9.147676375112406e-41
100.0 400.0 11.0 9.147676375112406e-41
100.0 410.0 9.0 9.147676375112406e-41
100.0 420.0 8.0 9.147676375112406e-41
100.0 430.0 7.0 9.147676375112406e-41
100.0 440.0 5.0 9.147676375112406e-41
100.0 450.0 3.0 9.147676375112406e-41
100.0 460.0 3.0 9.147676375112406e-41
110.0 480.0 4.0 9.147676375112406e-41
110.0 470.0 6.0 9.147676375112406e-41
110.0 460.0 6.0 9.147676375112406e-41
110.0 450.0 9.0 9.147676375112406e-41
110.0 440.0 10.0 9.147676375112406e-41
110.0 430.0 11.0 9.147676375112406e-41
110.0 420.0 14.0 9.147676375112406e-41
110.0 410.0 14.0 9.147676375112406e-41
110.0 400.0 16.0 9.147676375112406e-41
110.0 390.0 18.0 9.147676375112406e-41
110.0 380.0 20.0 9.147676375112406e-41
110.0 370.0 22.0 9.147676375112406e-41
110.0 360.0 25.0 9.147676375112406e-41
110.0 350.0 30.0 9.147676375112406e-41
110.0 340.0 32.0 9.147676375112406e-41
110.0 330.0 32.0 9.147676375112406e-41
110.0 320.0 33.0 9.147676375112406e-41
110.0 310.0 33.0 9.147676375112406e-41
110.0 300.0 33.0 9.147676375112406e-41
110.0 290.0 33.0 9.147676375112406e-41
110.0 280.0 33.0 9.147676375112406e-41
110.0 270.0 32.0 9.147676375112406e-41
110.0 260.0 33.0 9.147676375112406e-41
110.0 250.0 32.0 9.147676375112406e-41
110.0 240.0 32.0 9.147676375112406e-41
110.0 230.0 33.0 9.147676375112406e-41
110.0 220.0 32.0 9.147676375112406e-41
110.0 210.0 32.0 9.147676375112406e-41
110.0 200.0 32.0 9.147676375112406e-41
110.0 190.0 32.0 9.147676375112406e-41
110.0 180.0 32.0 9.147676375112406e-41
110.0 170.0 32.0 9.147676375112406e-41
110.0 160.0 32.0 9.147676375112406e-41
110.0 150.0 31.0 9.147676375112406e-41
110.0 140.0 32.0 9.147676375112406e-41
110.0 130.0 31.0 9.147676375112406e-41
110.0 120.0 27.0 9.147676375112406e-41
110.0 110.0 26.0 9.147676375112406e-41
110.0 100.0 24.0 9.147676375112406e-41
110.0 90.0 23.0 9.147676375112406e-41
110.0 80.0 20.0 9.147676375112406e-41
110.0 70.0 18.0 9.147676375112406e-41
110.0 60.0 16.0 9.147676375112406e-41
110.0 50.0 14.0 9.147676375112406e-41
110.0 40.0 6.0 9.147676375112406e-41
110.0 30.0 3.0 9.147676375112406e-41
110.0 20.0 2.0 9.147676375112406e-41
120.0 50.0 15.0 9.147676375112406e-41
120.0 60.0 17.0 9.147676375112406e-41
120.0 70.0 19.0 9.147676375112406e-41
120.0 80.0 22.0 9.147676375112406e-41
120.0 90.0 25.0 9.147676375112406e-41
120.0 100.0 25.0 9.147676375112406e-41
120.0 110.0 27.0 9.147676375112406e-41
120.0 120.0 28.0 9.147676375112406e-41
120.0 130.0 31.0 9.147676375112406e-41
120.0 140.0 28.0 9.147676375112406e-41
120.0 150.0 30.0 9.147676375112406e-41
120.0 160.0 30.0 9.147676375112406e-41
120.0 170.0 30.0 9.147676375112406e-41
120.0 180.0 30.0 9.147676375112406e-41
120.0 190.0 31.0 9.147676375112406e-41
120.0 200.0 28.0 9.147676375112406e-41
120.0 210.0 31.0 9.147676375112406e-41
120.0 220.0 30.0 9.147676375112406e-41
120.0 230.0 31.0 9.147676375112406e-41
120.0 240.0 31.0 9.147676375112406e-41
120.0 250.0 31.0 9.147676375112406e-41
120.0 260.0 30.0 9.147676375112406e-41
120.0 270.0 31.0 9.147676375112406e-41
120.0 280.0 31.0 9.147676375112406e-41
120.0 290.0 31.0 9.147676375112406e-41
120.0 300.0 32.0 9.147676375112406e-41
120.0 310.0 32.0 9.147676375112406e-41
120.0 320.0 31.0 9.147676375112406e-41
120.0 330.0 32.0 9.147676375112406e-41
120.0 340.0 28.0 9.147676375112406e-41
120.0 350.0 26.0 9.147676375112406e-41
120.0 360.0 22.0 9.147676375112406e-41
120.0 370.0 19.0 9.147676375112406e-41
120.0 380.0 19.0 9.147676375112406e-41
120.0 390.0 16.0 9.147676375112406e-41
120.0 400.0 14.0 9.147676375112406e-41
120.0 410.0 10.0 9.147676375112406e-41
120.0 420.0 8.0 9.147676375112406e-41
120.0 430.0 7.0 9.147676375112406e-41
120.0 440.0 4.0 9.147676375112406e-41
120.0 450.0 3.0 9.147676375112406e-41
120.0 460.0 3.0 9.147676375112406e-41
120.0 480.0 3.0 9.147676375112406e-41
130.0 500.0 2.0 9.147676375112406e-41
130.0 490.0 2.0 9.147676375112406e-41
130.0 480.0 3.0 9.147676375112406e-41
130.0 470.0 6.0 9.147676375112406e-41
130.0 460.0 6.0 9.147676375112406e-41
130.0 450.0 9.0 9.147676375112406e-41
130.0 440.0 11.0 9.147676375112406e-41
130.0 430.0 13.0 9.147676375112406e-41
130.0 420.0 13.0 9.147676375112406e-41
130.0 410.0 16.0 9.147676375112406e-41
130.0 400.0 17.0 9.147676375112406e-41
130.0 390.0 19.0 9.147676375112406e-41
130.0 380.0 20.0 9.147676375112406e-41
130.0 370.0 22.0 9.147676375112406e-41
130.0 360.0 27.0 9.147676375112406e-41
130.0 350.0 30.0 9.147676375112406e-41
130.0 340.0 32.0 9.147676375112406e-41
130.0 330.0 31.0 9.147676375112406e-41
130.0 320.0 33.0 9.147676375112406e-41
130.0 310.0 33.0 9.147676375112406e-41
130.0 300.0 33.0 9.147676375112406e-41
130.0 290.0 32.0 9.147676375112406e-41
130.0 280.0 32.0 9.147676375112406e-41
130.0 270.0 33.0 9.147676375112406e-41
130.0 260.0 33.0 9.147676375112406e-41
130.0 250.0 32.0 9.147676375112406e-41
130.0 240.0 33.0 9.147676375112406e-41
130.0 230.0 32.0 9.147676375112406e-41
130.0 220.0 32.0 9.147676375112406e-41
130.0 210.0 32.0 9.147676375112406e-41
130.0 200.0 33.0 9.147676375112406e-41
130.0 190.0 32.0 9.147676375112406e-41
130.0 180.0 32.0 9.147676375112406e-41
130.0 170.0 32.0 9.147676375112406e-41
130.0 160.0 32.0 9.147676375112406e-41
130.0 150.0 32.0 9.147676375112406e-41
130.0 140.0 32.0 9.147676375112406e-41
130.0 130.0 31.0 9.147676375112406e-41
130.0 120.0 28.0 9.147676375112406e-41
130.0 110.0 27.0 9.147676375112406e-41
130.0 100.0 25.0 9.147676375112406e-41
130.0 90.0 22.0 9.147676375112406e-41
130.0 80.0 19.0 9.147676375112406e-41
130.0 70.0 17.0 9.147676375112406e-41
130.0 60.0 17.0 9.147676375112406e-41
130.0 50.0 15.0 9.147676375112406e-41
130.0 40.0 8.0 9.147676375112406e-41
130.0 30.0 3.0 9.147676375112406e-41
140.0 50.0 14.0 9.147676375112406e-41
140.0 60.0 18.0 9.147676375112406e-41
140.0 70.0 20.0 9.147676375112406e-41
140.0 80.0 22.0 9.147676375112406e-41
140.0 90.0 25.0 9.147676375112406e-41
140.0 100.0 26.0 9.147676375112406e-41
140.0 110.0 28.0 9.147676375112406e-41
140.0 120.0 30.0 9.147676375112406e-41
140.0 130.0 28.0 9.147676375112406e-41
140.0 140.0 30.0 9.147676375112406e-41
140.0 150.0 30.0 9.147676375112406e-41
140.0 160.0 31.0 9.147676375112406e-41
140.0 170.0 31.0 9.147676375112406e-41
140.0 180.0 31.0 9.147676375112406e-41
140.0 190.0 31.0 9.147676375112406e-41
140.0 200.0 31.0 9.147676375112406e-41
140.0 210.0 30.0 9.147676375112406e-41
140.0 220.0 31.0 9.147676375112406e-41
140.0 230.0 28.0 9.147676375112406e-41
140.0 240.0 31.0 9.147676375112406e-41
140.0 250.0 31.0 9.147676375112406e-41
140.0 260.0 31.0 9.147676375112406e-41
140.0 270.0 31.0 9.147676375112406e-41
140.0 280.0 32.0 9.147676375112406e-41
140.0 290.0 32.0 9.147676375112406e-41
140.0 300.0 31.0 9.147676375112406e-41
140.0 310.0 31.0 9.147676375112406e-41
140.0 320.0 32.0 9.147676375112406e-41
140.0 330.0 31.0 9.147676375112406e-41
140.0 340.0 30.0 9.147676375112406e-41
140.0 350.0 27.0 9.147676375112406e-41
140.0 360.0 22.0 9.147676375112406e-41
140.0 370.0 21.0 9.147676375112406e-41
140.0 380.0 18.0 9.147676375112406e-41
140.0 390.0 15.0 9.147676375112406e-41
140.0 400.0 14.0 9.147676375112406e-41
140.0 410.0 10.0 9.147676375112406e-41
140.0 420.0 10.0 9.147676375112406e-41
140.0 430.0 6.0 9.147676375112406e-41
140.0 440.0 5.0 9.147676375112406e-41
140.0 450.0 4.0 9.147676375112406e-41
140.0 460.0 3.0 9.147676375112406e-41
140.0 480.0 2.0 9.147676375112406e-41
150.0 490.0 2.0 9.147676375112406e-41
150.0 480.0 5.0 9.147676375112406e-41
150.0 470.0 6.0 9.147676375112406e-41
150.0 460.0 7.0 9.147676375112406e-41
150.0 450.0 9.0 9.147676375112406e-41
150.0 440.0 10.0 9.147676375112406e-41
150.0 430.0 13.0 9.147676375112406e-41
150.0 420.0 13.0 9.147676375112406e-41
150.0 410.0 16.0 9.147676375112406e-41
150.0 400.0 17.0 9.147676375112406e-41
150.0 390.0 20.0 9.147676375112406e-41
150.0 380.0 20.0 9.147676375112406e-41
150.0 370.0 23.0 9.147676375112406e-41
150.0 360.0 26.0 9.147676375112406e-41
150.0 350.0 31.0 9.147676375112406e-41
150.0 340.0 32.0 9.147676375112406e-41
150.0 330.0 32.0 9.147676375112406e-41
150.0 320.0 33.0 9.147676375112406e-41
150.0 310.0 33.0 9.147676375112406e-41
150.0 300.0 33.0 9.147676375112406e-41
150.0 290.0 33.0 9.147676375112406e-41
150.0 280.0 33.0 9.147676375112406e-41
150.0 270.0 32.0 9.147676375112406e-41
150.0 260.0 32.0 9.147676375112406e-41
150.0 250.0 31.0 9.147676375112406e-41
150.0 240.0 31.0 9.147676375112406e-41
150.0 230.0 33.0 9.147676375112406e-41
150.0 220.0 33.0 9.147676375112406e-41
150.0 210.0 33.0 9.147676375112406e-41
150.0 200.0 31.0 9.147676375112406e-41
150.0 190.0 33.0 9.147676375112406e-41
150.0 180.0 33.0 9.147676375112406e-41
150.0 170.0 32.0 9.147676375112406e-41
150.0 160.0 32.0 9.147676375112406e-41
150.0 150.0 32.0 9.147676375112406e-41
150.0 140.0 31.0 9.147676375112406e-41
150.0 130.0 32.0 9.147676375112406e-41
150.0 120.0 31.0 9.147676375112406e-41
150.0 110.0 26.0 9.147676375112406e-41
150.0 100.0 24.0 9.147676375112406e-41
150.0 90.0 22.0 9.147676375112406e-41
150.0 80.0 19.0 9.147676375112406e-41
150.0 70.0 18.0 9.147676375112406e-41
150.0 60.0 16.0 9.147676375112406e-41
150.0 50.0 15.0 9.147676375112406e-41
150.0 40.0 11.0 9.147676375112406e-41
150.0 30.0 3.0 9.147676375112406e-41
160.0 50.0 15.0 9.147676375112406e-41
160.0 60.0 16.0 9.147676375112406e-41
160.0 70.0 20.0 9.147676375112406e-41
160.0 80.0 22.0 9.147676375112406e-41
160.0 90.0 24.0 9.147676375112406e-41
160.0 100.0 26.0 9.147676375112406e-41
160.0 110.0 30.0 9.147676375112406e-41
160.0 120.0 27.0 9.147676375112406e-41
160.0 130.0 28.0 9.147676375112406e-41
160.0 140.0 31.0 9.147676375112406e-41
160.0 150.0 30.0 9.147676375112406e-41
160.0 160.0 30.0 9.147676375112406e-41
160.0 170.0 31.0 9.147676375112406e-41
160.0 180.0 32.0 9.147676375112406e-41
160.0 190.0 30.0 9.147676375112406e-41
160.0 200.0 32.0 9.147676375112406e-41
160.0 210.0 31.0 9.147676375112406e-41
160.0 220.0 32.0 9.147676375112406e-41
160.0 230.0 31.0 9.147676375112406e-41
160.0 240.0 31.0 9.147676375112406e-41
160.0 250.0 31.0 9.147676375112406e-41
160.0 260.0 31.0 9.147676375112406e-41
160.0 270.0 33.0 9.147676375112406e-41
160.0 280.0 32.0 9.147676375112406e-41
160.0 290.0 32.0 9.147676375112406e-41
160.0 300.0 32.0 9.147676375112406e-41
160.0 310.0 32.0 9.147676375112406e-41
160.0 320.0 31.0 9.147676375112406e-41
160.0 330.0 32.0 9.147676375112406e-41
160.0 340.0 30.0 9.147676375112406e-41
160.0 350.0 26.0 9.147676375112406e-41
160.0 360.0 22.0 9.147676375112406e-41
160.0 370.0 19.0 9.147676375112406e-41
160.0 380.0 19.0 9.147676375112406e-41
160.0 390.0 17.0 9.147676375112406e-41
160.0 400.0 13.0 9.147676375112406e-41
160.0 410.0 11.0 9.147676375112406e-41
160.0 420.0 10.0 9.147676375112406e-41
160.0 430.0 8.0 9.147676375112406e-41
160.0 440.0 6.0 9.147676375112406e-41
160.0 450.0 3.0 9.147676375112406e-41
160.0 460.0 3.0 9.147676375112406e-41
170.0 480.0 7.0 9.147676375112406e-41
170.0 470.0 8.0 9.147676375112406e-41
170.0 460.0 7.0 9.147676375112406e-41
170.0 450.0 10.0 9.147676375112406e-41
170.0 440.0 10.0 9.147676375112406e-41
170.0 430.0 11.0 9.147676375112406e-41
170.0 420.0 15.0 9.147676375112406e-41
170.0 410.0 17.0 9.147676375112406e-41
170.0 400.0 18.0 9.147676375112406e-41
170.0 390.0 19.0 9.147676375112406e-41
170.0 380.0 22.0 9.147676375112406e-41
170.0 370.0 22.0 9.147676375112406e-41
170.0 360.0 27.0 9.147676375112406e-41
170.0 350.0 27.0 9.147676375112406e-41
170.0 340.0 32.0 9.147676375112406e-41
170.0 330.0 32.0 9.147676375112406e-41
170.0 320.0 33.0 9.147676375112406e-41
170.0 310.0 34.0 9.147676375112406e-41
170.0 300.0 34.0 9.147676375112406e-41
170.0 290.0 34.0 9.147676375112406e-41
170.0 280.0 33.0 9.147676375112406e-41
170.0 270.0 33.0 9.147676375112406e-41
170.0 260.0 33.0 9.147676375112406e-41
170.0 250.0 32.0 9.147676375112406e-41
170.0 240.0 34.0 9.147676375112406e-41
170.0 230.0 33.0 9.147676375112406e-41
170.0 220.0 32.0 9.147676375112406e-41
170.0 210.0 32.0 9.147676375112406e-41
170.0 200.0 33.0 9.147676375112406e-41
170.0 190.0 34.0 9.147676375112406e-41
170.0 180.0 33.0 9.147676375112406e-41
170.0 170.0 32.0 9.147676375112406e-41
170.0 160.0 33.0 9.147676375112406e-41
170.0 150.0 34.0 9.147676375112406e-41
170.0 140.0 32.0 9.147676375112406e-41
170.0 130.0 32.0 9.147676375112406e-41
170.0 120.0 28.0 9.147676375112406e-41
170.0 110.0 26.0 9.147676375112406e-41
170.0 100.0 25.0 9.147676375112406e-41
170.0 90.0 22.0 9.147676375112406e-41
170.0 80.0 20.0 9.147676375112406e-41
170.0 70.0 18.0 9.147676375112406e-41
170.0 60.0 15.0 9.147676375112406e-41
170.0 50.0 11.0 9.147676375112406e-41
170.0 40.0 5.0 9.147676375112406e-41
170.0 30.0 3.0 9.147676375112406e-41
170.0 20.0 2.0 9.147676375112406e-41
180.0 50.0 13.0 9.147676375112406e-41
180.0 60.0 13.0 9.147676375112406e-41
180.0 70.0 14.0 9.147676375112406e-41
180.0 80.0 17.0 9.147676375112406e-41
180.0 90.0 20.0 9.147676375112406e-41
180.0 100.0 23.0 9.147676375112406e-41
180.0 110.0 26.0 9.147676375112406e-41
180.0 120.0 26.0 9.147676375112406e-41
180.0 130.0 28.0 9.147676375112406e-41
180.0 140.0 31.0 9.147676375112406e-41
180.0 150.0 32.0 9.147676375112406e-41
180.0 160.0 32.0 9.147676375112406e-41
180.0 170.0 32.0 9.147676375112406e-41
180.0 180.0 33.0 9.147676375112406e-41
180.0 190.0 34.0 9.147676375112406e-41
180.0 200.0 32.0 9.147676375112406e-41
180.0 210.0 33.0 9.147676375112406e-41
180.0 220.0 33.0 9.147676375112406e-41
180.0 230.0 33.0 9.147676375112406e-41
180.0 240.0 33.0 9.147676375112406e-41
180.0 250.0 33.0 9.147676375112406e-41
180.0 260.0 34.0 9.147676375112406e-41
180.0 270.0 34.0 9.147676375112406e-41
180.0 280.0 32.0 9.147676375112406e-41
180.0 290.0 34.0 9.147676375112406e-41
180.0 300.0 33.0 9.147676375112406e-41
180.0 310.0 32.0 9.147676375112406e-41
180.0 320.0 33.0 9.147676375112406e-41
180.0 330.0 32.0 9.147676375112406e-41
180.0 340.0 32.0 9.147676375112406e-41
180.0 350.0 30.0 9.147676375112406e-41
180.0 360.0 26.0 9.147676375112406e-41
180.0 370.0 23.0 9.147676375112406e-41
180.0 380.0 21.0 9.147676375112406e-41
180.0 390.0 19.0 9.147676375112406e-41
180.0 400.0 17.0 9.147676375112406e-41
180.0 410.0 15.0 9.147676375112406e-41
180.0 420.0 13.0 9.147676375112406e-41
180.0 430.0 10.0 9.147676375112406e-41
180.0 440.0 10.0 9.147676375112406e-41
180.0 450.0 7.0 9.147676375112406e-41
180.0 460.0 7.0 9.147676375112406e-41
180.0 470.0 6.0 9.147676375112406e-41
180.0 480.0 6.0 9.147676375112406e-41
180.0 490.0 2.0 9.147676375112406e-41
190.0 480.0 2.0 9.147676375112406e-41
190.0 470.0 6.0 9.147676375112406e-41
190.0 460.0 6.0 9.147676375112406e-41
190.0 450.0 8.0 9.147676375112406e-41
190.0 440.0 11.0 9.147676375112406e-41
190.0 430.0 13.0 9.147676375112406e-41
190.0 420.0 13.0 9.147676375112406e-41
190.0 410.0 15.0 9.147676375112406e-41
190.0 400.0 17.0 9.147676375112406e-41
190.0 390.0 19.0 9.147676375112406e-41
190.0 380.0 19.0 9.147676375112406e-41
190.0 370.0 22.0 9.147676375112406e-41
190.0 360.0 22.0 9.147676375112406e-41
190.0 350.0 28.0 9.147676375112406e-41
190.0 340.0 30.0 9.147676375112406e-41
190.0 330.0 32.0 9.147676375112406e-41
190.0 320.0 32.0 9.147676375112406e-41
190.0 310.0 32.0 9.147676375112406e-41
190.0 300.0 33.0 9.147676375112406e-41
190.0 290.0 34.0 9.147676375112406e-41
190.0 280.0 33.0 9.147676375112406e-41
190.0 270.0 32.0 9.147676375112406e-41
190.0 260.0 32.0 9.147676375112406e-41
190.0 250.0 32.0 9.147676375112406e-41
190.0 240.0 32.0 9.147676375112406e-41
190.0 230.0 32.0 9.147676375112406e-41
190.0 220.0 32.0 9.147676375112406e-41
190.0 210.0 32.0 9.147676375112406e-41
190.0 200.0 33.0 9.147676375112406e-41
190.0 190.0 33.0 9.147676375112406e-41
190.0 180.0 33.0 9.147676375112406e-41
190.0 170.0 32.0 9.147676375112406e-41
190.0 160.0 32.0 9.147676375112406e-41
190.0 150.0 33.0 9.147676375112406e-41
190.0 140.0 32.0 9.147676375112406e-41
190.0 130.0 30.0 9.147676375112406e-41
190.0 120.0 27.0 9.147676375112406e-41
190.0 110.0 26.0 9.147676375112406e-41
190.0 100.0 22.0 9.147676375112406e-41
190.0 90.0 19.0 9.147676375112406e-41
190.0 80.0 19.0 9.147676375112406e-41
190.0 70.0 17.0 9.147676375112406e-41
190.0 60.0 14.0 9.147676375112406e-41
190.0 50.0 8.0 9.147676375112406e-41
190.0 40.0 7.0 9.147676375112406e-41
190.0 30.0 4.0 9.147676375112406e-41
190.0 20.0 2.0 9.147676375112406e-41
200.0 50.0 4.0 9.147676375112406e-41
200.0 60.0 5.0 9.147676375112406e-41
200.0 70.0 8.0 9.147676375112406e-41
200.0 80.0 10.0 9.147676375112406e-41
200.0 90.0 13.0 9.147676375112406e-41
200.0 100.0 20.0 9.147676375112406e-41
200.0 110.0 20.0 9.147676375112406e-41
200.0 120.0 22.0 9.147676375112406e-41
200.0 130.0 22.0 9.147676375112406e-41
200.0 140.0 23.0 9.147676375112406e-41
200.0 150.0 23.0 9.147676375112406e-41
200.0 160.0 24.0 9.147676375112406e-41
200.0 170.0 23.0 9.147676375112406e-41
200.0 180.0 24.0 9.147676375112406e-41
200.0 190.0 20.0 9.147676375112406e-41
200.0 200.0 22.0 9.147676375112406e-41
200.0 210.0 22.0 9.147676375112406e-41
200.0 220.0 22.0 9.147676375112406e-41
200.0 230.0 22.0 9.147676375112406e-41
200.0 240.0 22.0 9.147676375112406e-41
200.0 250.0 21.0 9.147676375112406e-41
200.0 260.0 23.0 9.147676375112406e-41
200.0 270.0 23.0 9.147676375112406e-41
200.0 280.0 22.0 9.147676375112406e-41
200.0 290.0 23.0 9.147676375112406e-41
200.0 300.0 21.0 9.147676375112406e-41
200.0 310.0 23.0 9.147676375112406e-41
200.0 320.0 19.0 9.147676375112406e-41
200.0 330.0 19.0 9.147676375112406e-41
200.0 340.0 18.0 9.147676375112406e-41
200.0 350.0 16.0 9.147676375112406e-41
200.0 360.0 14.0 9.147676375112406e-41
200.0 370.0 13.0 9.147676375112406e-41
200.0 380.0 14.0 9.147676375112406e-41
200.0 390.0 10.0 9.147676375112406e-41
200.0 400.0 6.0 9.147676375112406e-41
200.0 410.0 4.0 9.147676375112406e-41
200.0 420.0 2.0 9.147676375112406e-41
200.0 430.0 4.0 9.147676375112406e-41
200.0 440.0 2.0 9.147676375112406e-41
200.0 480.0 2.0 9.147676375112406e-41
210.0 440.0 2.0 9.147676375112406e-41
210.0 430.0 2.0 9.147676375112406e-41
210.0 420.0 3.0 9.147676375112406e-41
210.0 410.0 4.0 9.147676375112406e-41
210.0 400.0 4.0 9.147676375112406e-41
210.0 390.0 4.0 9.147676375112406e-41
210.0 380.0 8.0 9.147676375112406e-41
210.0 370.0 9.0 9.147676375112406e-41
210.0 360.0 8.0 9.147676375112406e-41
210.0 350.0 11.0 9.147676375112406e-41
210.0 340.0 11.0 9.147676375112406e-41
210.0 330.0 10.0 9.147676375112406e-41
210.0 320.0 11.0 9.147676375112406e-41
210.0 310.0 13.0 9.147676375112406e-41
210.0 300.0 13.0 9.147676375112406e-41
210.0 290.0 11.0 9.147676375112406e-41
210.0 280.0 13.0 9.147676375112406e-41
210.0 270.0 14.0 9.147676375112406e-41
210.0 260.0 15.0 9.147676375112406e-41
210.0 250.0 15.0 9.147676375112406e-41
210.0 240.0 17.0 9.147676375112406e-41
210.0 230.0 16.0 9.147676375112406e-41
210.0 220.0 15.0 9.147676375112406e-41
210.0 210.0 17.0 9.147676375112406e-41
210.0 200.0 17.0 9.147676375112406e-41
210.0 190.0 18.0 9.147676375112406e-41
210.0 180.0 18.0 9.147676375112406e-41
210.0 170.0 16.0 9.147676375112406e-41
210.0 160.0 10.0 9.147676375112406e-41
210.0 150.0 11.0 9.147676375112406e-41
210.0 140.0 11.0 9.147676375112406e-41
210.0 130.0 15.0 9.147676375112406e-41
210.0 120.0 7.0 9.147676375112406e-41
210.0 110.0 8.0 9.147676375112406e-41
210.0 100.0 6.0 9.147676375112406e-41
210.0 90.0 6.0 9.147676375112406e-41
210.0 80.0 6.0 9.147676375112406e-41
210.0 70.0 4.0 9.147676375112406e-41
210.0 60.0 5.0 9.147676375112406e-41
210.0 50.0 4.0 9.147676375112406e-41
210.0 40.0 3.0 9.147676375112406e-41
220.0 80.0 2.0 9.147676375112406e-41
220.0 120.0 3.0 9.147676375112406e-41
220.0 130.0 2.0 9.147676375112406e-41
220.0 150.0 3.0 9.147676375112406e-41
220.0 160.0 8.0 9.147676375112406e-41
220.0 170.0 5.0 9.147676375112406e-41
220.0 180.0 11.0 9.147676375112406e-41
220.0 190.0 10.0 9.147676375112406e-41
220.0 200.0 11.0 9.147676375112406e-41
220.0 210.0 13.0 9.147676375112406e-41
220.0 220.0 13.0 9.147676375112406e-41
220.0 230.0 8.0 9.147676375112406e-41
220.0 240.0 8.0 9.147676375112406e-41
220.0 250.0 7.0 9.147676375112406e-41
220.0 260.0 8.0 9.147676375112406e-41
220.0 270.0 5.0 9.147676375112406e-41
220.0 280.0 6.0 9.147676375112406e-41
220.0 290.0 3.0 9.147676375112406e-41
220.0 300.0 2.0 9.147676375112406e-41
230.0 290.0 4.0 9.147676375112406e-41
230.0 280.0 4.0 9.147676375112406e-41
230.0 270.0 6.0 9.147676375112406e-41
230.0 260.0 7.0 9.147676375112406e-41
230.0 250.0 10.0 9.147676375112406e-41
230.0 240.0 10.0 9.147676375112406e-41
230.0 230.0 9.0 9.147676375112406e-41
230.0 220.0 11.0 9.147676375112406e-41
230.0 210.0 11.0 9.147676375112406e-41
230.0 200.0 11.0 9.147676375112406e-41
230.0 190.0 9.0 9.147676375112406e-41
230.0 180.0 5.0 9.147676375112406e-41
230.0 170.0 3.0 9.147676375112406e-41
230.0 160.0 4.0 9.147676375112406e-41
230.0 150.0 4.0 9.147676375112406e-41
230.0 140.0 3.0 9.147676375112406e-41
230.0 130.0 2.0 9.147676375112406e-41
230.0 120.0 4.0 9.147676375112406e-41
230.0 110.0 2.0 9.147676375112406e-41
230.0 100.0 2.0 9.147676375112406e-41
230.0 80.0 2.0 9.147676375112406e-41
230.0 70.0 3.0 9.147676375112406e-41
230.0 60.0 3.0 9.147676375112406e-41
230.0 50.0 3.0 9.147676375112406e-41
240.0 170.0 2.0 9.147676375112406e-41
240.0 180.0 2.0 9.147676375112406e-41
240.0 190.0 3.0 9.147676375112406e-41
240.0 200.0 2.0 9.147676375112406e-41
240.0 210.0 3.0 9.147676375112406e-41
240.0 220.0 2.0 9.147676375112406e-41
240.0 230.0 3.0 9.147676375112406e-41
240.0 240.0 2.0 9.147676375112406e-41
250.0 60.0 4.0 9.147676375112406e-41
260.0 70.0 2.0 9.147676375112406e-41
270.0 80.0 2.0 9.147676375112406e-41
270.0 70.0 2.0 9.147676375112406e-41
270.0 60.0 2.0 9.147676375112406e-41
270.0 50.0 3.0 9.147676375112406e-41
280.0 80.0 2.0 9.147676375112406e-41
