# .PCD v.7 - Point Cloud Data file format
VERSION .7
FIELDS x y z rgb
SIZE 4 4 4 4
TYPE F F F F
COUNT 1 1 1 1
WIDTH 1123
HEIGHT 1
VIEWPOINT 0 0 0 1 0 0 0
POINTS 1123
DATA ascii
0.0 450.0 2.0 9.147676375112406e-41
20.0 130.0 2.0 9.147676375112406e-41
20.0 220.0 2.0 9.147676375112406e-41
20.0 230.0 5.0 9.147676375112406e-41
20.0 240.0 6.0 9.147676375112406e-41
20.0 250.0 8.0 9.147676375112406e-41
20.0 260.0 2.0 9.147676375112406e-41
20.0 460.0 2.0 9.147676375112406e-41
30.0 490.0 3.0 9.147676375112406e-41
30.0 480.0 6.0 9.147676375112406e-41
30.0 470.0 6.0 9.147676375112406e-41
30.0 460.0 6.0 9.147676375112406e-41
30.0 450.0 4.0 9.147676375112406e-41
30.0 440.0 3.0 9.147676375112406e-41
30.0 250.0 9.0 9.147676375112406e-41
30.0 240.0 10.0 9.147676375112406e-41
30.0 230.0 9.0 9.147676375112406e-41
30.0 220.0 7.0 9.147676375112406e-41
30.0 210.0 4.0 9.147676375112406e-41
30.0 200.0 2.0 9.147676375112406e-41
30.0 60.0 2.0 9.147676375112406e-41
30.0 50.0 3.0 9.147676375112406e-41
30.0 40.0 3.0 9.147676375112406e-41
30.0 30.0 3.0 9.147676375112406e-41
30.0 20.0 2.0 9.147676375112406e-41
40.0 50.0 3.0 9.147676375112406e-41
40.0 70.0 3.0 9.147676375112406e-41
40.0 130.0 2.0 9.147676375112406e-41
40.0 220.0 5.0 9.147676375112406e-41
40.0 230.0 7.0 9.147676375112406e-41
40.0 240.0 9.0 9.147676375112406e-41
40.0 250.0 8.0 9.147676375112406e-41
40.0 260.0 9.0 9.147676375112406e-41
40.0 270.0 9.0 9.147676375112406e-41
40.0 280.0 3.0 9.147676375112406e-41
40.0 290.0 2.0 9.147676375112406e-41
40.0 390.0 3.0 9.147676375112406e-41
40.0 400.0 3.0 9.147676375112406e-41
40.0 410.0 5.0 9.147676375112406e-41
40.0 420.0 6.0 9.147676375112406e-41
40.0 430.0 6.0 9.147676375112406e-41
40.0 440.0 8.0 9.147676375112406e-41
40.0 450.0 9.0 9.147676375112406e-41
40.0 460.0 10.0 9.147676375112406e-41
40.0 470.0 12.0 9.147676375112406e-41
40.0 480.0 8.0 9.147676375112406e-41
40.0 490.0 8.0 9.147676375112406e-41
40.0 500.0 7.0 9.147676375112406e-41
50.0 500.0 8.0 9.147676375112406e-41
50.0 490.0 8.0 9.147676375112406e-41
50.0 480.0 9.0 9.147676375112406e-41
50.0 470.0 12.0 9.147676375112406e-41
50.0 460.0 12.0 9.147676375112406e-41
50.0 450.0 13.0 9.147676375112406e-41
50.0 440.0 9.0 9.147676375112406e-41
50.0 430.0 8.0 9.147676375112406e-41
50.0 420.0 8.0 9.147676375112406e-41
50.0 410.0 3.0 9.147676375112406e-41
50.0 400.0 2.0 9.147676375112406e-41
50.0 320.0 2.0 9.147676375112406e-41
50.0 310.0 4.0 9.147676375112406e-41
50.0 300.0 2.0 9.147676375112406e-41
50.0 290.0 4.0 9.147676375112406e-41
50.0 280.0 5.0 9.147676375112406e-41
50.0 270.0 9.0 9.147676375112406e-41
50.0 260.0 9.0 9.147676375112406e-41
50.0 250.0 9.0 9.147676375112406e-41
50.0 240.0 8.0 9.147676375112406e-41
50.0 230.0 7.0 9.147676375112406e-41
50.0 220.0 4.0 9.147676375112406e-41
50.0 70.0 2.0 9.147676375112406e-41
50.0 60.0 3.0 9.147676375112406e-41
50.0 50.0 4.0 9.147676375112406e-41
50.0 40.0 5.0 9.147676375112406e-41
50.0 30.0 4.0 9.147676375112406e-41
60.0 50.0 3.0 9.147676375112406e-41
60.0 70.0 2.0 9.147676375112406e-41
60.0 80.0 2.0 9.147676375112406e-41
60.0 110.0 2.0 9.147676375112406e-41
60.0 150.0 3.0 9.147676375112406e-41
60.0 160.0 4.0 9.147676375112406e-41
60.0 170.0 3.0 9.147676375112406e-41
60.0 180.0 4.0 9.147676375112406e-41
60.0 220.0 2.0 9.147676375112406e-41
60.0 230.0 5.0 9.147676375112406e-41
60.0 240.0 6.0 9.147676375112406e-41
60.0 250.0 7.0 9.147676375112406e-41
60.0 260.0 9.0 9.147676375112406e-41
60.0 270.0 8.0 9.147676375112406e-41
60.0 280.0 9.0 9.147676375112406e-41
60.0 290.0 5.0 9.147676375112406e-41
60.0 300.0 4.0 9.147676375112406e-41
60.0 310.0 2.0 9.147676375112406e-41
60.0 320.0 2.0 9.147676375112406e-41
60.0 400.0 2.0 9.147676375112406e-41
60.0 410.0 4.0 9.147676375112406e-41
60.0 420.0 6.0 9.147676375112406e-41
60.0 430.0 6.0 9.147676375112406e-41
60.0 440.0 9.0 9.147676375112406e-41
60.0 450.0 8.0 9.147676375112406e-41
60.0 460.0 10.0 9.147676375112406e-41
60.0 470.0 10.0 9.147676375112406e-41
60.0 480.0 9.0 9.147676375112406e-41
60.0 490.0 9.0 9.147676375112406e-41
60.0 500.0 8.0 9.147676375112406e-41
70.0 500.0 9.0 9.147676375112406e-41
70.0 490.0 9.0 9.147676375112406e-41
70.0 480.0 9.0 9.147676375112406e-41
70.0 470.0 10.0 9.147676375112406e-41
70.0 460.0 10.0 9.147676375112406e-41
70.0 450.0 10.0 9.147676375112406e-41
70.0 440.0 9.0 9.147676375112406e-41
70.0 430.0 9.0 9.147676375112406e-41
70.0 420.0 7.0 9.147676375112406e-41
70.0 410.0 6.0 9.147676375112406e-41
70.0 400.0 6.0 9.147676375112406e-41
70.0 390.0 2.0 9.147676375112406e-41
70.0 350.0 2.0 9.147676375112406e-41
70.0 340.0 3.0 9.147676375112406e-41
70.0 330.0 3.0 9.147676375112406e-41
70.0 320.0 5.0 9.147676375112406e-41
70.0 310.0 6.0 9.147676375112406e-41
70.0 300.0 8.0 9.147676375112406e-41
70.0 290.0 8.0 9.147676375112406e-41
70.0 280.0 12.0 9.147676375112406e-41
70.0 270.0 10.0 9.147676375112406e-41
70.0 260.0 10.0 9.147676375112406e-41
70.0 250.0 9.0 9.147676375112406e-41
70.0 240.0 8.0 9.147676375112406e-41
70.0 230.0 6.0 9.147676375112406e-41
70.0 220.0 5.0 9.147676375112406e-41
70.0 210.0 5.0 9.147676375112406e-41
70.0 200.0 7.0 9.147676375112406e-41
70.0 190.0 3.0 9.147676375112406e-41
70.0 180.0 8.0 9.147676375112406e-41
70.0 170.0 8.0 9.147676375112406e-41
70.0 160.0 8.0 9.147676375112406e-41
70.0 150.0 6.0 9.147676375112406e-41
70.0 140.0 6.0 9.147676375112406e-41
70.0 130.0 5.0 9.147676375112406e-41
70.0 80.0 2.0 9.147676375112406e-41
70.0 70.0 2.0 9.147676375112406e-41
70.0 60.0 3.0 9.147676375112406e-41
70.0 50.0 4.0 9.147676375112406e-41
70.0 40.0 3.0 9.147676375112406e-41
70.0 30.0 3.0 9.147676375112406e-41
70.0 20.0 2.0 9.147676375112406e-41
80.0 140.0 3.0 9.147676375112406e-41
80.0 150.0 5.0 9.147676375112406e-41
80.0 160.0 6.0 9.147676375112406e-41
80.0 170.0 7.0 9.147676375112406e-41
80.0 180.0 7.0 9.147676375112406e-41
80.0 190.0 7.0 9.147676375112406e-41
80.0 200.0 4.0 9.147676375112406e-41
80.0 210.0 5.0 9.147676375112406e-41
80.0 220.0 5.0 9.147676375112406e-41
80.0 230.0 6.0 9.147676375112406e-41
80.0 240.0 7.0 9.147676375112406e-41
80.0 250.0 9.0 9.147676375112406e-41
80.0 260.0 10.0 9.147676375112406e-41
80.0 270.0 12.0 9.147676375112406e-41
80.0 280.0 12.0 9.147676375112406e-41
80.0 290.0 12.0 9.147676375112406e-41
80.0 300.0 6.0 9.147676375112406e-41
80.0 310.0 6.0 9.147676375112406e-41
80.0 320.0 3.0 9.147676375112406e-41
80.0 330.0 2.0 9.147676375112406e-41
80.0 350.0 2.0 9.147676375112406e-41
80.0 360.0 4.0 9.147676375112406e-41
80.0 380.0 2.0 9.147676375112406e-41
80.0 390.0 3.0 9.147676375112406e-41
80.0 400.0 6.0 9.147676375112406e-41
80.0 410.0 8.0 9.147676375112406e-41
80.0 420.0 9.0 9.147676375112406e-41
80.0 430.0 10.0 9.147676375112406e-41
80.0 440.0 12.0 9.147676375112406e-41
80.0 450.0 12.0 9.147676375112406e-41
80.0 460.0 12.0 9.147676375112406e-41
80.0 470.0 10.0 9.147676375112406e-41
80.0 480.0 12.0 9.147676375112406e-41
80.0 490.0 12.0 9.147676375112406e-41
80.0 500.0 9.0 9.147676375112406e-41
90.0 500.0 10.0 9.147676375112406e-41
90.0 490.0 12.0 9.147676375112406e-41
90.0 480.0 12.0 9.147676375112406e-41
90.0 470.0 10.0 9.147676375112406e-41
90.0 460.0 12.0 9.147676375112406e-41
90.0 450.0 12.0 9.147676375112406e-41
90.0 440.0 12.0 9.147676375112406e-41
90.0 430.0 10.0 9.147676375112406e-41
90.0 420.0 9.0 9.147676375112406e-41
90.0 410.0 8.0 9.147676375112406e-41
90.0 400.0 9.0 9.147676375112406e-41
90.0 390.0 5.0 9.147676375112406e-41
90.0 380.0 4.0 9.147676375112406e-41
90.0 370.0 3.0 9.147676375112406e-41
90.0 360.0 4.0 9.147676375112406e-41
90.0 350.0 5.0 9.147676375112406e-41
90.0 340.0 5.0 9.147676375112406e-41
90.0 330.0 6.0 9.147676375112406e-41
90.0 320.0 8.0 9.147676375112406e-41
90.0 310.0 7.0 9.147676375112406e-41
90.0 300.0 10.0 9.147676375112406e-41
90.0 290.0 10.0 9.147676375112406e-41
90.0 280.0 13.0 9.147676375112406e-41
90.0 270.0 12.0 9.147676375112406e-41
90.0 260.0 13.0 9.147676375112406e-41
90.0 250.0 12.0 9.147676375112406e-41
90.0 240.0 9.0 9.147676375112406e-41
90.0 230.0 7.0 9.147676375112406e-41
90.0 220.0 7.0 9.147676375112406e-41
90.0 210.0 8.0 9.147676375112406e-41
90.0 200.0 8.0 9.147676375112406e-41
90.0 190.0 6.0 9.147676375112406e-41
90.0 180.0 6.0 9.147676375112406e-41
90.0 170.0 8.0 9.147676375112406e-41
90.0 160.0 7.0 9.147676375112406e-41
90.0 150.0 5.0 9.147676375112406e-41
90.0 140.0 5.0 9.147676375112406e-41
90.0 130.0 3.0 9.147676375112406e-41
90.0 50.0 2.0 9.147676375112406e-41
100.0 80.0 2.0 9.147676375112406e-41
100.0 120.0 2.0 9.147676375112406e-41
100.0 130.0 4.0 9.147676375112406e-41
100.0 140.0 6.0 9.147676375112406e-41
100.0 150.0 7.0 9.147676375112406e-41
100.0 160.0 8.0 9.147676375112406e-41
100.0 170.0 7.0 9.147676375112406e-41
100.0 180.0 8.0 9.147676375112406e-41
100.0 190.0 7.0 9.147676375112406e-41
100.0 200.0 7.0 9.147676375112406e-41
100.0 210.0 6.0 9.147676375112406e-41
100.0 220.0 6.0 9.147676375112406e-41
100.0 230.0 9.0 9.147676375112406e-41
100.0 240.0 8.0 9.147676375112406e-41
100.0 250.0 10.0 9.147676375112406e-41
100.0 260.0 12.0 9.147676375112406e-41
100.0 270.0 13.0 9.147676375112406e-41
100.0 280.0 14.0 9.147676375112406e-41
100.0 290.0 13.0 9.147676375112406e-41
100.0 300.0 14.0 9.147676375112406e-41
100.0 310.0 10.0 9.147676375112406e-41
100.0 320.0 7.0 9.147676375112406e-41
100.0 330.0 5.0 9.147676375112406e-41
100.0 340.0 5.0 9.147676375112406e-41
100.0 350.0 3.0 9.147676375112406e-41
100.0 360.0 5.0 9.147676375112406e-41
100.0 370.0 4.0 9.147676375112406e-41
100.0 380.0 6.0 9.147676375112406e-41
100.0 390.0 9.0 9.147676375112406e-41
100.0 400.0 12.0 9.147676375112406e-41
100.0 410.0 10.0 9.147676375112406e-41
100.0 420.0 12.0 9.147676375112406e-41
100.0 430.0 10.0 9.147676375112406e-41
100.0 440.0 12.0 9.147676375112406e-41
100.0 450.0 13.0 9.147676375112406e-41
100.0 460.0 14.0 9.147676375112406e-41
100.0 470.0 14.0 9.147676375112406e-41
100.0 480.0 14.0 9.147676375112406e-41
100.0 490.0 13.0 9.147676375112406e-41
100.0 500.0 13.0 9.147676375112406e-41
110.0 500.0 13.0 9.147676375112406e-41
110.0 490.0 13.0 9.147676375112406e-41
110.0 480.0 13.0 9.147676375112406e-41
110.0 470.0 14.0 9.147676375112406e-41
110.0 460.0 14.0 9.147676375112406e-41
110.0 450.0 13.0 9.147676375112406e-41
110.0 440.0 13.0 9.147676375112406e-41
110.0 430.0 13.0 9.147676375112406e-41
110.0 420.0 13.0 9.147676375112406e-41
110.0 410.0 12.0 9.147676375112406e-41
110.0 400.0 10.0 9.147676375112406e-41
110.0 390.0 7.0 9.147676375112406e-41
110.0 380.0 6.0 9.147676375112406e-41
110.0 370.0 5.0 9.147676375112406e-41
110.0 360.0 5.0 9.147676375112406e-41
110.0 350.0 9.0 9.147676375112406e-41
110.0 340.0 8.0 9.147676375112406e-41
110.0 330.0 10.0 9.147676375112406e-41
110.0 320.0 12.0 9.147676375112406e-41
110.0 310.0 10.0 9.147676375112406e-41
110.0 300.0 14.0 9.147676375112406e-41
110.0 290.0 14.0 9.147676375112406e-41
110.0 280.0 14.0 9.147676375112406e-41
110.0 270.0 14.0 9.147676375112406e-41
110.0 260.0 14.0 9.147676375112406e-41
110.0 250.0 12.0 9.147676375112406e-41
110.0 240.0 10.0 9.147676375112406e-41
110.0 230.0 8.0 9.147676375112406e-41
110.0 220.0 8.0 9.147676375112406e-41
110.0 210.0 8.0 9.147676375112406e-41
110.0 200.0 8.0 9.147676375112406e-41
110.0 190.0 8.0 9.147676375112406e-41
110.0 180.0 9.0 9.147676375112406e-41
110.0 170.0 9.0 9.147676375112406e-41
110.0 160.0 9.0 9.147676375112406e-41
110.0 150.0 7.0 9.147676375112406e-41
110.0 140.0 7.0 9.147676375112406e-41
110.0 130.0 7.0 9.147676375112406e-41
110.0 120.0 4.0 9.147676375112406e-41
110.0 110.0 2.0 9.147676375112406e-41
110.0 50.0 3.0 9.147676375112406e-41
110.0 40.0 2.0 9.147676375112406e-41
120.0 70.0 2.0 9.147676375112406e-41
120.0 120.0 2.0 9.147676375112406e-41
120.0 130.0 7.0 9.147676375112406e-41
120.0 140.0 8.0 9.147676375112406e-41
120.0 150.0 9.0 9.147676375112406e-41
120.0 160.0 9.0 9.147676375112406e-41
120.0 170.0 10.0 9.147676375112406e-41
120.0 180.0 9.0 9.147676375112406e-41
120.0 190.0 9.0 9.147676375112406e-41
120.0 200.0 7.0 9.147676375112406e-41
120.0 210.0 7.0 9.147676375112406e-41
120.0 220.0 7.0 9.147676375112406e-41
120.0 230.0 7.0 9.147676375112406e-41
120.0 240.0 9.0 9.147676375112406e-41
120.0 250.0 10.0 9.147676375112406e-41
120.0 260.0 13.0 9.147676375112406e-41
120.0 270.0 14.0 9.147676375112406e-41
120.0 280.0 15.0 9.147676375112406e-41
120.0 290.0 14.0 9.147676375112406e-41
120.0 300.0 15.0 9.147676375112406e-41
120.0 310.0 15.0 9.147676375112406e-41
120.0 320.0 12.0 9.147676375112406e-41
120.0 330.0 9.0 9.147676375112406e-41
120.0 340.0 8.0 9.147676375112406e-41
120.0 350.0 5.0 9.147676375112406e-41
120.0 360.0 7.0 9.147676375112406e-41
120.0 370.0 8.0 9.147676375112406e-41
120.0 380.0 7.0 9.147676375112406e-41
120.0 390.0 8.0 9.147676375112406e-41
120.0 400.0 12.0 9.147676375112406e-41
120.0 410.0 12.0 9.147676375112406e-41
120.0 420.0 13.0 9.147676375112406e-41
120.0 430.0 13.0 9.147676375112406e-41
120.0 440.0 12.0 9.147676375112406e-41
120.0 450.0 14.0 9.147676375112406e-41
120.0 460.0 15.0 9.147676375112406e-41
120.0 470.0 14.0 9.147676375112406e-41
120.0 480.0 15.0 9.147676375112406e-41
120.0 490.0 14.0 9.147676375112406e-41
120.0 500.0 14.0 9.147676375112406e-41
130.0 500.0 14.0 9.147676375112406e-41
130.0 490.0 14.0 9.147676375112406e-41
130.0 480.0 15.0 9.147676375112406e-41
130.0 470.0 16.0 9.147676375112406e-41
130.0 460.0 16.0 9.147676375112406e-41
130.0 450.0 15.0 9.147676375112406e-41
130.0 440.0 16.0 9.147676375112406e-41
130.0 430.0 15.0 9.147676375112406e-41
130.0 420.0 14.0 9.147676375112406e-41
130.0 410.0 14.0 9.147676375112406e-41
130.0 400.0 13.0 9.147676375112406e-41
130.0 390.0 9.0 9.147676375112406e-41
130.0 380.0 10.0 9.147676375112406e-41
130.0 370.0 10.0 9.147676375112406e-41
130.0 360.0 10.0 9.147676375112406e-41
130.0 350.0 10.0 9.147676375112406e-41
130.0 340.0 13.0 9.147676375112406e-41
130.0 330.0 13.0 9.147676375112406e-41
130.0 320.0 16.0 9.147676375112406e-41
130.0 310.0 17.0 9.147676375112406e-41
130.0 300.0 16.0 9.147676375112406e-41
130.0 290.0 16.0 9.147676375112406e-41
130.0 280.0 16.0 9.147676375112406e-41
130.0 270.0 15.0 9.147676375112406e-41
130.0 260.0 14.0 9.147676375112406e-41
130.0 250.0 13.0 9.147676375112406e-41
130.0 240.0 10.0 9.147676375112406e-41
130.0 230.0 10.0 9.147676375112406e-41
130.0 220.0 10.0 9.147676375112406e-41
130.0 210.0 10.0 9.147676375112406e-41
130.0 200.0 9.0 9.147676375112406e-41
130.0 190.0 10.0 9.147676375112406e-41
130.0 180.0 13.0 9.147676375112406e-41
130.0 170.0 13.0 9.147676375112406e-41
130.0 160.0 12.0 9.147676375112406e-41
130.0 150.0 10.0 9.147676375112406e-41
130.0 140.0 9.0 9.147676375112406e-41
130.0 130.0 9.0 9.147676375112406e-41
130.0 120.0 8.0 9.147676375112406e-41
130.0 110.0 5.0 9.147676375112406e-41
130.0 60.0 2.0 9.147676375112406e-41
130.0 40.0 2.0 9.147676375112406e-41
140.0 70.0 2.0 9.147676375112406e-41
140.0 110.0 4.0 9.147676375112406e-41
140.0 120.0 6.0 9.147676375112406e-41
140.0 130.0 9.0 9.147676375112406e-41
140.0 140.0 11.0 9.147676375112406e-41
140.0 150.0 12.0 9.147676375112406e-41
140.0 160.0 12.0 9.147676375112406e-41
140.0 170.0 12.0 9.147676375112406e-41
140.0 180.0 12.0 9.147676375112406e-41
140.0 190.0 12.0 9.147676375112406e-41
140.0 200.0 11.0 9.147676375112406e-41
140.0 210.0 9.0 9.147676375112406e-41
140.0 220.0 10.0 9.147676375112406e-41
140.0 230.0 9.0 9.147676375112406e-41
140.0 240.0 10.0 9.147676375112406e-41
140.0 250.0 12.0 9.147676375112406e-41
140.0 260.0 13.0 9.147676375112406e-41
140.0 270.0 15.0 9.147676375112406e-41
140.0 280.0 16.0 9.147676375112406e-41
140.0 290.0 16.0 9.147676375112406e-41
140.0 300.0 16.0 9.147676375112406e-41
140.0 310.0 16.0 9.147676375112406e-41
140.0 320.0 14.0 9.147676375112406e-41
140.0 330.0 12.0 9.147676375112406e-41
140.0 340.0 12.0 9.147676375112406e-41
140.0 350.0 12.0 9.147676375112406e-41
140.0 360.0 9.0 9.147676375112406e-41
140.0 370.0 10.0 9.147676375112406e-41
140.0 380.0 12.0 9.147676375112406e-41
140.0 390.0 10.0 9.147676375112406e-41
140.0 400.0 13.0 9.147676375112406e-41
140.0 410.0 15.0 9.147676375112406e-41
140.0 420.0 15.0 9.147676375112406e-41
140.0 430.0 15.0 9.147676375112406e-41
140.0 440.0 16.0 9.147676375112406e-41
140.0 450.0 16.0 9.147676375112406e-41
140.0 460.0 17.0 9.147676375112406e-41
140.0 470.0 17.0 9.147676375112406e-41
140.0 480.0 17.0 9.147676375112406e-41
140.0 490.0 16.0 9.147676375112406e-41
140.0 500.0 15.0 9.147676375112406e-41
150.0 500.0 16.0 9.147676375112406e-41
150.0 490.0 15.0 9.147676375112406e-41
150.0 480.0 17.0 9.147676375112406e-41
150.0 470.0 17.0 9.147676375112406e-41
150.0 460.0 17.0 9.147676375112406e-41
150.0 450.0 16.0 9.147676375112406e-41
150.0 440.0 17.0 9.147676375112406e-41
150.0 430.0 16.0 9.147676375112406e-41
150.0 420.0 16.0 9.147676375112406e-41
150.0 410.0 16.0 9.147676375112406e-41
150.0 400.0 15.0 9.147676375112406e-41
150.0 390.0 13.0 9.147676375112406e-41
150.0 380.0 13.0 9.147676375112406e-41
150.0 370.0 10.0 9.147676375112406e-41
150.0 360.0 10.0 9.147676375112406e-41
150.0 350.0 13.0 9.147676375112406e-41
150.0 340.0 13.0 9.147676375112406e-41
150.0 330.0 14.0 9.147676375112406e-41
150.0 320.0 15.0 9.147676375112406e-41
150.0 310.0 16.0 9.147676375112406e-41
150.0 300.0 17.0 9.147676375112406e-41
150.0 290.0 18.0 9.147676375112406e-41
150.0 280.0 17.0 9.147676375112406e-41
150.0 270.0 17.0 9.147676375112406e-41
150.0 260.0 16.0 9.147676375112406e-41
150.0 250.0 16.0 9.147676375112406e-41
150.0 240.0 14.0 9.147676375112406e-41
150.0 230.0 13.0 9.147676375112406e-41
150.0 220.0 10.0 9.147676375112406e-41
150.0 210.0 12.0 9.147676375112406e-41
150.0 200.0 13.0 9.147676375112406e-41
150.0 190.0 13.0 9.147676375112406e-41
150.0 180.0 13.0 9.147676375112406e-41
150.0 170.0 13.0 9.147676375112406e-41
150.0 160.0 13.0 9.147676375112406e-41
150.0 150.0 13.0 9.147676375112406e-41
150.0 140.0 12.0 9.147676375112406e-41
150.0 130.0 10.0 9.147676375112406e-41
150.0 120.0 8.0 9.147676375112406e-41
150.0 110.0 7.0 9.147676375112406e-41
150.0 100.0 3.0 9.147676375112406e-41
150.0 40.0 2.0 9.147676375112406e-41
150.0 30.0 2.0 9.147676375112406e-41
160.0 110.0 6.0 9.147676375112406e-41
160.0 120.0 9.0 9.147676375112406e-41
160.0 130.0 9.0 9.147676375112406e-41
160.0 140.0 10.0 9.147676375112406e-41
160.0 150.0 13.0 9.147676375112406e-41
160.0 160.0 14.0 9.147676375112406e-41
160.0 170.0 13.0 9.147676375112406e-41
160.0 180.0 14.0 9.147676375112406e-41
160.0 190.0 14.0 9.147676375112406e-41
160.0 200.0 14.0 9.147676375112406e-41
160.0 210.0 12.0 9.147676375112406e-41
160.0 220.0 13.0 9.147676375112406e-41
160.0 230.0 13.0 9.147676375112406e-41
160.0 240.0 14.0 9.147676375112406e-41
160.0 250.0 15.0 9.147676375112406e-41
160.0 260.0 16.0 9.147676375112406e-41
160.0 270.0 18.0 9.147676375112406e-41
160.0 280.0 17.0 9.147676375112406e-41
160.0 290.0 17.0 9.147676375112406e-41
160.0 300.0 17.0 9.147676375112406e-41
160.0 310.0 16.0 9.147676375112406e-41
160.0 320.0 13.0 9.147676375112406e-41
160.0 330.0 13.0 9.147676375112406e-41
160.0 340.0 13.0 9.147676375112406e-41
160.0 350.0 12.0 9.147676375112406e-41
160.0 360.0 12.0 9.147676375112406e-41
160.0 370.0 12.0 9.147676375112406e-41
160.0 380.0 13.0 9.147676375112406e-41
160.0 390.0 13.0 9.147676375112406e-41
160.0 400.0 15.0 9.147676375112406e-41
160.0 410.0 16.0 9.147676375112406e-41
160.0 420.0 17.0 9.147676375112406e-41
160.0 430.0 17.0 9.147676375112406e-41
160.0 440.0 17.0 9.147676375112406e-41
160.0 450.0 18.0 9.147676375112406e-41
160.0 460.0 18.0 9.147676375112406e-41
160.0 470.0 18.0 9.147676375112406e-41
160.0 480.0 18.0 9.147676375112406e-41
160.0 490.0 17.0 9.147676375112406e-41
160.0 500.0 16.0 9.147676375112406e-41
170.0 500.0 16.0 9.147676375112406e-41
170.0 490.0 17.0 9.147676375112406e-41
170.0 480.0 17.0 9.147676375112406e-41
170.0 470.0 20.0 9.147676375112406e-41
170.0 460.0 19.0 9.147676375112406e-41
170.0 450.0 18.0 9.147676375112406e-41
170.0 440.0 19.0 9.147676375112406e-41
170.0 430.0 18.0 9.147676375112406e-41
170.0 420.0 18.0 9.147676375112406e-41
170.0 410.0 18.0 9.147676375112406e-41
170.0 400.0 16.0 9.147676375112406e-41
170.0 390.0 15.0 9.147676375112406e-41
170.0 380.0 15.0 9.147676375112406e-41
170.0 370.0 14.0 9.147676375112406e-41
170.0 360.0 14.0 9.147676375112406e-41
170.0 350.0 12.0 9.147676375112406e-41
170.0 340.0 13.0 9.147676375112406e-41
170.0 330.0 15.0 9.147676375112406e-41
170.0 320.0 17.0 9.147676375112406e-41
170.0 310.0 16.0 9.147676375112406e-41
170.0 300.0 18.0 9.147676375112406e-41
170.0 290.0 19.0 9.147676375112406e-41
170.0 280.0 20.0 9.147676375112406e-41
170.0 270.0 18.0 9.147676375112406e-41
170.0 260.0 17.0 9.147676375112406e-41
170.0 250.0 16.0 9.147676375112406e-41
170.0 240.0 15.0 9.147676375112406e-41
170.0 230.0 14.0 9.147676375112406e-41
170.0 220.0 14.0 9.147676375112406e-41
170.0 210.0 14.0 9.147676375112406e-41
170.0 200.0 15.0 9.147676375112406e-41
170.0 190.0 14.0 9.147676375112406e-41
170.0 180.0 15.0 9.147676375112406e-41
170.0 170.0 15.0 9.147676375112406e-41
170.0 160.0 14.0 9.147676375112406e-41
170.0 150.0 14.0 9.147676375112406e-41
170.0 140.0 14.0 9.147676375112406e-41
170.0 130.0 12.0 9.147676375112406e-41
170.0 120.0 10.0 9.147676375112406e-41
170.0 110.0 8.0 9.147676375112406e-41
170.0 100.0 7.0 9.147676375112406e-41
170.0 80.0 2.0 9.147676375112406e-41
170.0 60.0 3.0 9.147676375112406e-41
170.0 50.0 2.0 9.147676375112406e-41
170.0 40.0 3.0 9.147676375112406e-41
170.0 30.0 2.0 9.147676375112406e-41
170.0 20.0 4.0 9.147676375112406e-41
180.0 10.0 4.0 9.147676375112406e-41
180.0 20.0 3.0 9.147676375112406e-41
180.0 30.0 4.0 9.147676375112406e-41
180.0 40.0 3.0 9.147676375112406e-41
180.0 100.0 2.0 9.147676375112406e-41
180.0 110.0 7.0 9.147676375112406e-41
180.0 120.0 9.0 9.147676375112406e-41
180.0 130.0 10.0 9.147676375112406e-41
180.0 140.0 13.0 9.147676375112406e-41
180.0 150.0 14.0 9.147676375112406e-41
180.0 160.0 15.0 9.147676375112406e-41
180.0 170.0 14.0 9.147676375112406e-41
180.0 180.0 14.0 9.147676375112406e-41
180.0 190.0 15.0 9.147676375112406e-41
180.0 200.0 14.0 9.147676375112406e-41
180.0 210.0 15.0 9.147676375112406e-41
180.0 220.0 14.0 9.147676375112406e-41
180.0 230.0 13.0 9.147676375112406e-41
180.0 240.0 14.0 9.147676375112406e-41
180.0 250.0 15.0 9.147676375112406e-41
180.0 260.0 16.0 9.147676375112406e-41
180.0 270.0 18.0 9.147676375112406e-41
180.0 280.0 19.0 9.147676375112406e-41
180.0 290.0 18.0 9.147676375112406e-41
180.0 300.0 18.0 9.147676375112406e-41
180.0 310.0 17.0 9.147676375112406e-41
180.0 320.0 15.0 9.147676375112406e-41
180.0 330.0 15.0 9.147676375112406e-41
180.0 340.0 14.0 9.147676375112406e-41
180.0 350.0 13.0 9.147676375112406e-41
180.0 360.0 14.0 9.147676375112406e-41
180.0 370.0 14.0 9.147676375112406e-41
180.0 380.0 14.0 9.147676375112406e-41
180.0 390.0 14.0 9.147676375112406e-41
180.0 400.0 16.0 9.147676375112406e-41
180.0 410.0 17.0 9.147676375112406e-41
180.0 420.0 17.0 9.147676375112406e-41
180.0 430.0 18.0 9.147676375112406e-41
180.0 440.0 19.0 9.147676375112406e-41
180.0 450.0 19.0 9.147676375112406e-41
180.0 460.0 19.0 9.147676375112406e-41
180.0 470.0 19.0 9.147676375112406e-41
180.0 480.0 19.0 9.147676375112406e-41
180.0 490.0 17.0 9.147676375112406e-41
180.0 500.0 17.0 9.147676375112406e-41
190.0 500.0 18.0 9.147676375112406e-41
190.0 490.0 17.0 9.147676375112406e-41
190.0 480.0 18.0 9.147676375112406e-41
190.0 470.0 20.0 9.147676375112406e-41
190.0 460.0 20.0 9.147676375112406e-41
190.0 450.0 20.0 9.147676375112406e-41
190.0 440.0 19.0 9.147676375112406e-41
190.0 430.0 20.0 9.147676375112406e-41
190.0 420.0 19.0 9.147676375112406e-41
190.0 410.0 19.0 9.147676375112406e-41
190.0 400.0 17.0 9.147676375112406e-41
190.0 390.0 16.0 9.147676375112406e-41
190.0 380.0 15.0 9.147676375112406e-41
190.0 370.0 14.0 9.147676375112406e-41
190.0 360.0 15.0 9.147676375112406e-41
190.0 350.0 15.0 9.147676375112406e-41
190.0 340.0 16.0 9.147676375112406e-41
190.0 330.0 17.0 9.147676375112406e-41
190.0 320.0 18.0 9.147676375112406e-41
190.0 310.0 19.0 9.147676375112406e-41
190.0 300.0 19.0 9.147676375112406e-41
190.0 290.0 19.0 9.147676375112406e-41
190.0 280.0 19.0 9.147676375112406e-41
190.0 270.0 20.0 9.147676375112406e-41
190.0 260.0 18.0 9.147676375112406e-41
190.0 250.0 16.0 9.147676375112406e-41
190.0 240.0 16.0 9.147676375112406e-41
190.0 230.0 15.0 9.147676375112406e-41
190.0 220.0 16.0 9.147676375112406e-41
190.0 210.0 15.0 9.147676375112406e-41
190.0 200.0 16.0 9.147676375112406e-41
190.0 190.0 16.0 9.147676375112406e-41
190.0 180.0 17.0 9.147676375112406e-41
190.0 170.0 16.0 9.147676375112406e-41
190.0 160.0 15.0 9.147676375112406e-41
190.0 150.0 15.0 9.147676375112406e-41
190.0 140.0 14.0 9.147676375112406e-41
190.0 130.0 13.0 9.147676375112406e-41
190.0 120.0 10.0 9.147676375112406e-41
190.0 110.0 8.0 9.147676375112406e-41
190.0 90.0 2.0 9.147676375112406e-41
190.0 60.0 3.0 9.147676375112406e-41
190.0 50.0 6.0 9.147676375112406e-41
190.0 40.0 7.0 9.147676375112406e-41
190.0 30.0 8.0 9.147676375112406e-41
190.0 20.0 7.0 9.147676375112406e-41
190.0 10.0 5.0 9.147676375112406e-41
190.0 0.0 6.0 9.147676375112406e-41
200.0 0.0 5.0 9.147676375112406e-41
200.0 10.0 7.0 9.147676375112406e-41
200.0 20.0 7.0 9.147676375112406e-41
200.0 30.0 8.0 9.147676375112406e-41
200.0 40.0 6.0 9.147676375112406e-41
200.0 50.0 4.0 9.147676375112406e-41
200.0 60.0 2.0 9.147676375112406e-41
200.0 70.0 2.0 9.147676375112406e-41
200.0 120.0 8.0 9.147676375112406e-41
200.0 130.0 10.0 9.147676375112406e-41
200.0 140.0 12.0 9.147676375112406e-41
200.0 150.0 14.0 9.147676375112406e-41
200.0 160.0 14.0 9.147676375112406e-41
200.0 170.0 16.0 9.147676375112406e-41
200.0 180.0 16.0 9.147676375112406e-41
200.0 190.0 16.0 9.147676375112406e-41
200.0 200.0 15.0 9.147676375112406e-41
200.0 210.0 16.0 9.147676375112406e-41
200.0 220.0 14.0 9.147676375112406e-41
200.0 230.0 15.0 9.147676375112406e-41
200.0 240.0 15.0 9.147676375112406e-41
200.0 250.0 16.0 9.147676375112406e-41
200.0 260.0 16.0 9.147676375112406e-41
200.0 270.0 18.0 9.147676375112406e-41
200.0 280.0 19.0 9.147676375112406e-41
200.0 290.0 19.0 9.147676375112406e-41
200.0 300.0 18.0 9.147676375112406e-41
200.0 310.0 19.0 9.147676375112406e-41
200.0 320.0 18.0 9.147676375112406e-41
200.0 330.0 16.0 9.147676375112406e-41
200.0 340.0 16.0 9.147676375112406e-41
200.0 350.0 16.0 9.147676375112406e-41
200.0 360.0 14.0 9.147676375112406e-41
200.0 370.0 16.0 9.147676375112406e-41
200.0 380.0 16.0 9.147676375112406e-41
200.0 390.0 17.0 9.147676375112406e-41
200.0 400.0 18.0 9.147676375112406e-41
200.0 410.0 18.0 9.147676375112406e-41
200.0 420.0 19.0 9.147676375112406e-41
200.0 430.0 20.0 9.147676375112406e-41
200.0 440.0 20.0 9.147676375112406e-41
200.0 450.0 20.0 9.147676375112406e-41
200.0 460.0 21.0 9.147676375112406e-41
200.0 470.0 20.0 9.147676375112406e-41
200.0 480.0 21.0 9.147676375112406e-41
200.0 490.0 19.0 9.147676375112406e-41
200.0 500.0 18.0 9.147676375112406e-41
210.0 500.0 20.0 9.147676375112406e-41
210.0 490.0 19.0 9.147676375112406e-41
210.0 480.0 21.0 9.147676375112406e-41
210.0 470.0 21.0 9.147676375112406e-41
210.0 460.0 22.0 9.147676375112406e-41
210.0 450.0 22.0 9.147676375112406e-41
210.0 440.0 22.0 9.147676375112406e-41
210.0 430.0 21.0 9.147676375112406e-41
210.0 420.0 21.0 9.147676375112406e-41
210.0 410.0 21.0 9.147676375112406e-41
210.0 400.0 21.0 9.147676375112406e-41
210.0 390.0 20.0 9.147676375112406e-41
210.0 380.0 19.0 9.147676375112406e-41
210.0 370.0 19.0 9.147676375112406e-41
210.0 360.0 18.0 9.147676375112406e-41
210.0 350.0 19.0 9.147676375112406e-41
210.0 340.0 19.0 9.147676375112406e-41
210.0 330.0 20.0 9.147676375112406e-41
210.0 320.0 20.0 9.147676375112406e-41
210.0 310.0 20.0 9.147676375112406e-41
210.0 300.0 20.0 9.147676375112406e-41
210.0 290.0 20.0 9.147676375112406e-41
210.0 280.0 21.0 9.147676375112406e-41
210.0 270.0 20.0 9.147676375112406e-41
210.0 260.0 20.0 9.147676375112406e-41
210.0 250.0 18.0 9.147676375112406e-41
210.0 240.0 17.0 9.147676375112406e-41
210.0 230.0 16.0 9.147676375112406e-41
210.0 220.0 17.0 9.147676375112406e-41
210.0 210.0 16.0 9.147676375112406e-41
210.0 200.0 17.0 9.147676375112406e-41
210.0 190.0 17.0 9.147676375112406e-41
210.0 180.0 17.0 9.147676375112406e-41
210.0 170.0 17.0 9.147676375112406e-41
210.0 160.0 17.0 9.147676375112406e-41
210.0 150.0 15.0 9.147676375112406e-41
210.0 140.0 15.0 9.147676375112406e-41
210.0 130.0 13.0 9.147676375112406e-41
210.0 120.0 9.0 9.147676375112406e-41
210.0 110.0 7.0 9.147676375112406e-41
210.0 90.0 2.0 9.147676375112406e-41
210.0 80.0 3.0 9.147676375112406e-41
210.0 70.0 6.0 9.147676375112406e-41
210.0 60.0 9.0 9.147676375112406e-41
210.0 50.0 10.0 9.147676375112406e-41
210.0 40.0 12.0 9.147676375112406e-41
210.0 30.0 10.0 9.147676375112406e-41
210.0 20.0 10.0 9.147676375112406e-41
210.0 10.0 9.0 9.147676375112406e-41
210.0 0.0 8.0 9.147676375112406e-41
220.0 0.0 8.0 9.147676375112406e-41
220.0 10.0 9.0 9.147676375112406e-41
220.0 20.0 9.0 9.147676375112406e-41
220.0 30.0 10.0 9.147676375112406e-41
220.0 40.0 9.0 9.147676375112406e-41
220.0 50.0 8.0 9.147676375112406e-41
220.0 60.0 9.0 9.147676375112406e-41
220.0 70.0 7.0 9.147676375112406e-41
220.0 80.0 6.0 9.147676375112406e-41
220.0 90.0 4.0 9.147676375112406e-41
220.0 100.0 2.0 9.147676375112406e-41
220.0 110.0 2.0 9.147676375112406e-41
220.0 120.0 7.0 9.147676375112406e-41
220.0 130.0 10.0 9.147676375112406e-41
220.0 140.0 14.0 9.147676375112406e-41
220.0 150.0 15.0 9.147676375112406e-41
220.0 160.0 16.0 9.147676375112406e-41
220.0 170.0 16.0 9.147676375112406e-41
220.0 180.0 17.0 9.147676375112406e-41
220.0 190.0 17.0 9.147676375112406e-41
220.0 200.0 16.0 9.147676375112406e-41
220.0 210.0 17.0 9.147676375112406e-41
220.0 220.0 17.0 9.147676375112406e-41
220.0 230.0 17.0 9.147676375112406e-41
220.0 240.0 18.0 9.147676375112406e-41
220.0 250.0 18.0 9.147676375112406e-41
220.0 260.0 20.0 9.147676375112406e-41
220.0 270.0 21.0 9.147676375112406e-41
220.0 280.0 20.0 9.147676375112406e-41
220.0 290.0 20.0 9.147676375112406e-41
220.0 300.0 21.0 9.147676375112406e-41
220.0 310.0 21.0 9.147676375112406e-41
220.0 320.0 21.0 9.147676375112406e-41
220.0 330.0 21.0 9.147676375112406e-41
220.0 340.0 20.0 9.147676375112406e-41
220.0 350.0 21.0 9.147676375112406e-41
220.0 360.0 22.0 9.147676375112406e-41
220.0 370.0 22.0 9.147676375112406e-41
220.0 380.0 23.0 9.147676375112406e-41
220.0 390.0 23.0 9.147676375112406e-41
220.0 400.0 23.0 9.147676375112406e-41
220.0 410.0 23.0 9.147676375112406e-41
220.0 420.0 24.0 9.147676375112406e-41
220.0 430.0 24.0 9.147676375112406e-41
220.0 440.0 25.0 9.147676375112406e-41
220.0 450.0 25.0 9.147676375112406e-41
220.0 460.0 25.0 9.147676375112406e-41
220.0 470.0 24.0 9.147676375112406e-41
220.0 480.0 23.0 9.147676375112406e-41
220.0 490.0 23.0 9.147676375112406e-41
220.0 500.0 20.0 9.147676375112406e-41
230.0 500.0 21.0 9.147676375112406e-41
230.0 490.0 22.0 9.147676375112406e-41
230.0 480.0 24.0 9.147676375112406e-41
230.0 470.0 27.0 9.147676375112406e-41
230.0 460.0 27.0 9.147676375112406e-41
230.0 450.0 31.0 9.147676375112406e-41
230.0 440.0 29.0 9.147676375112406e-41
230.0 430.0 31.0 9.147676375112406e-41
230.0 420.0 30.0 9.147676375112406e-41
230.0 410.0 30.0 9.147676375112406e-41
230.0 400.0 31.0 9.147676375112406e-41
230.0 390.0 29.0 9.147676375112406e-41
230.0 380.0 27.0 9.147676375112406e-41
230.0 370.0 27.0 9.147676375112406e-41
230.0 360.0 26.0 9.147676375112406e-41
230.0 350.0 25.0 9.147676375112406e-41
230.0 340.0 25.0 9.147676375112406e-41
230.0 330.0 25.0 9.147676375112406e-41
230.0 320.0 24.0 9.147676375112406e-41
230.0 310.0 24.0 9.147676375112406e-41
230.0 300.0 24.0 9.147676375112406e-41
230.0 290.0 25.0 9.147676375112406e-41
230.0 280.0 24.0 9.147676375112406e-41
230.0 270.0 23.0 9.147676375112406e-41
230.0 260.0 23.0 9.147676375112406e-41
230.0 250.0 23.0 9.147676375112406e-41
230.0 240.0 21.0 9.147676375112406e-41
230.0 230.0 21.0 9.147676375112406e-41
230.0 220.0 19.0 9.147676375112406e-41
230.0 210.0 19.0 9.147676375112406e-41
230.0 200.0 19.0 9.147676375112406e-41
230.0 190.0 19.0 9.147676375112406e-41
230.0 180.0 19.0 9.147676375112406e-41
230.0 170.0 17.0 9.147676375112406e-41
230.0 160.0 18.0 9.147676375112406e-41
230.0 150.0 16.0 9.147676375112406e-41
230.0 140.0 15.0 9.147676375112406e-41
230.0 130.0 13.0 9.147676375112406e-41
230.0 120.0 9.0 9.147676375112406e-41
230.0 110.0 8.0 9.147676375112406e-41
230.0 100.0 7.0 9.147676375112406e-41
230.0 90.0 9.0 9.147676375112406e-41
230.0 80.0 8.0 9.147676375112406e-41
230.0 70.0 10.0 9.147676375112406e-41
230.0 60.0 13.0 9.147676375112406e-41
230.0 50.0 13.0 9.147676375112406e-41
230.0 40.0 13.0 9.147676375112406e-41
230.0 30.0 12.0 9.147676375112406e-41
230.0 20.0 10.0 9.147676375112406e-41
230.0 10.0 10.0 9.147676375112406e-41
230.0 0.0 9.0 9.147676375112406e-41
240.0 0.0 9.0 9.147676375112406e-41
240.0 10.0 9.0 9.147676375112406e-41
240.0 20.0 10.0 9.147676375112406e-41
240.0 30.0 10.0 9.147676375112406e-41
240.0 40.0 10.0 9.147676375112406e-41
240.0 50.0 12.0 9.147676375112406e-41
240.0 60.0 10.0 9.147676375112406e-41
240.0 70.0 12.0 9.147676375112406e-41
240.0 80.0 9.0 9.147676375112406e-41
240.0 90.0 9.0 9.147676375112406e-41
240.0 100.0 9.0 9.147676375112406e-41
240.0 110.0 8.0 9.147676375112406e-41
240.0 120.0 9.0 9.147676375112406e-41
240.0 130.0 10.0 9.147676375112406e-41
240.0 140.0 12.0 9.147676375112406e-41
240.0 150.0 16.0 9.147676375112406e-41
240.0 160.0 16.0 9.147676375112406e-41
240.0 170.0 17.0 9.147676375112406e-41
240.0 180.0 19.0 9.147676375112406e-41
240.0 190.0 19.0 9.147676375112406e-41
240.0 200.0 19.0 9.147676375112406e-41
240.0 210.0 20.0 9.147676375112406e-41
240.0 220.0 20.0 9.147676375112406e-41
240.0 230.0 21.0 9.147676375112406e-41
240.0 240.0 22.0 9.147676375112406e-41
240.0 250.0 24.0 9.147676375112406e-41
240.0 260.0 24.0 9.147676375112406e-41
240.0 270.0 25.0 9.147676375112406e-41
240.0 280.0 25.0 9.147676375112406e-41
240.0 290.0 25.0 9.147676375112406e-41
240.0 300.0 25.0 9.147676375112406e-41
240.0 310.0 25.0 9.147676375112406e-41
240.0 320.0 26.0 9.147676375112406e-41
240.0 330.0 26.0 9.147676375112406e-41
240.0 340.0 26.0 9.147676375112406e-41
240.0 350.0 27.0 9.147676375112406e-41
240.0 360.0 26.0 9.147676375112406e-41
240.0 370.0 27.0 9.147676375112406e-41
240.0 380.0 27.0 9.147676375112406e-41
240.0 390.0 30.0 9.147676375112406e-41
240.0 400.0 30.0 9.147676375112406e-41
240.0 410.0 29.0 9.147676375112406e-41
240.0 420.0 30.0 9.147676375112406e-41
240.0 430.0 29.0 9.147676375112406e-41
240.0 440.0 29.0 9.147676375112406e-41
240.0 450.0 29.0 9.147676375112406e-41
240.0 460.0 30.0 9.147676375112406e-41
240.0 470.0 27.0 9.147676375112406e-41
240.0 480.0 27.0 9.147676375112406e-41
240.0 490.0 24.0 9.147676375112406e-41
240.0 500.0 25.0 9.147676375112406e-41
250.0 500.0 26.0 9.147676375112406e-41
250.0 490.0 26.0 9.147676375112406e-41
250.0 480.0 29.0 9.147676375112406e-41
250.0 470.0 29.0 9.147676375112406e-41
250.0 460.0 31.0 9.147676375112406e-41
250.0 450.0 30.0 9.147676375112406e-41
250.0 440.0 31.0 9.147676375112406e-41
250.0 430.0 30.0 9.147676375112406e-41
250.0 420.0 30.0 9.147676375112406e-41
250.0 410.0 31.0 9.147676375112406e-41
250.0 400.0 31.0 9.147676375112406e-41
250.0 390.0 31.0 9.147676375112406e-41
250.0 380.0 31.0 9.147676375112406e-41
250.0 370.0 31.0 9.147676375112406e-41
250.0 360.0 31.0 9.147676375112406e-41
250.0 350.0 31.0 9.147676375112406e-41
250.0 340.0 31.0 9.147676375112406e-41
250.0 330.0 31.0 9.147676375112406e-41
250.0 320.0 30.0 9.147676375112406e-41
250.0 310.0 30.0 9.147676375112406e-41
250.0 300.0 29.0 9.147676375112406e-41
250.0 290.0 27.0 9.147676375112406e-41
250.0 280.0 27.0 9.147676375112406e-41
250.0 270.0 27.0 9.147676375112406e-41
250.0 260.0 27.0 9.147676375112406e-41
250.0 250.0 26.0 9.147676375112406e-41
250.0 240.0 26.0 9.147676375112406e-41
250.0 230.0 25.0 9.147676375112406e-41
250.0 220.0 25.0 9.147676375112406e-41
250.0 210.0 23.0 9.147676375112406e-41
250.0 200.0 22.0 9.147676375112406e-41
250.0 190.0 22.0 9.147676375112406e-41
250.0 180.0 21.0 9.147676375112406e-41
250.0 170.0 20.0 9.147676375112406e-41
250.0 160.0 19.0 9.147676375112406e-41
250.0 150.0 18.0 9.147676375112406e-41
250.0 140.0 16.0 9.147676375112406e-41
250.0 130.0 16.0 9.147676375112406e-41
250.0 120.0 16.0 9.147676375112406e-41
250.0 110.0 15.0 9.147676375112406e-41
250.0 100.0 14.0 9.147676375112406e-41
250.0 90.0 14.0 9.147676375112406e-41
250.0 80.0 14.0 9.147676375112406e-41
250.0 70.0 14.0 9.147676375112406e-41
250.0 60.0 14.0 9.147676375112406e-41
250.0 50.0 14.0 9.147676375112406e-41
250.0 40.0 13.0 9.147676375112406e-41
250.0 30.0 13.0 9.147676375112406e-41
250.0 20.0 12.0 9.147676375112406e-41
250.0 10.0 11.0 9.147676375112406e-41
250.0 0.0 9.0 9.147676375112406e-41
260.0 0.0 11.0 9.147676375112406e-41
260.0 10.0 11.0 9.147676375112406e-41
260.0 20.0 11.0 9.147676375112406e-41
260.0 30.0 11.0 9.147676375112406e-41
260.0 40.0 13.0 9.147676375112406e-41
260.0 50.0 12.0 9.147676375112406e-41
260.0 60.0 13.0 9.147676375112406e-41
260.0 70.0 13.0 9.147676375112406e-41
260.0 80.0 14.0 9.147676375112406e-41
260.0 90.0 13.0 9.147676375112406e-41
260.0 100.0 14.0 9.147676375112406e-41
260.0 110.0 16.0 9.147676375112406e-41
260.0 120.0 15.0 9.147676375112406e-41
260.0 130.0 16.0 9.147676375112406e-41
260.0 140.0 16.0 9.147676375112406e-41
260.0 150.0 17.0 9.147676375112406e-41
260.0 160.0 18.0 9.147676375112406e-41
260.0 170.0 19.0 9.147676375112406e-41
260.0 180.0 20.0 9.147676375112406e-41
260.0 190.0 20.0 9.147676375112406e-41
260.0 200.0 21.0 9.147676375112406e-41
260.0 210.0 23.0 9.147676375112406e-41
260.0 220.0 23.0 9.147676375112406e-41
260.0 230.0 24.0 9.147676375112406e-41
260.0 240.0 25.0 9.147676375112406e-41
260.0 250.0 25.0 9.147676375112406e-41
260.0 260.0 26.0 9.147676375112406e-41
260.0 270.0 26.0 9.147676375112406e-41
260.0 280.0 27.0 9.147676375112406e-41
260.0 290.0 27.0 9.147676375112406e-41
260.0 300.0 27.0 9.147676375112406e-41
260.0 310.0 29.0 9.147676375112406e-41
260.0 320.0 30.0 9.147676375112406e-41
260.0 330.0 30.0 9.147676375112406e-41
260.0 340.0 31.0 9.147676375112406e-41
260.0 350.0 30.0 9.147676375112406e-41
260.0 360.0 30.0 9.147676375112406e-41
260.0 370.0 31.0 9.147676375112406e-41
260.0 380.0 31.0 9.147676375112406e-41
260.0 390.0 30.0 9.147676375112406e-41
260.0 400.0 31.0 9.147676375112406e-41
260.0 410.0 30.0 9.147676375112406e-41
260.0 420.0 30.0 9.147676375112406e-41
260.0 430.0 30.0 9.147676375112406e-41
260.0 440.0 30.0 9.147676375112406e-41
260.0 450.0 31.0 9.147676375112406e-41
260.0 460.0 30.0 9.147676375112406e-41
260.0 470.0 30.0 9.147676375112406e-41
260.0 480.0 30.0 9.147676375112406e-41
260.0 490.0 27.0 9.147676375112406e-41
260.0 500.0 29.0 9.147676375112406e-41
270.0 500.0 31.0 9.147676375112406e-41
270.0 490.0 31.0 9.147676375112406e-41
270.0 480.0 33.0 9.147676375112406e-41
270.0 470.0 33.0 9.147676375112406e-41
270.0 460.0 33.0 9.147676375112406e-41
270.0 450.0 33.0 9.147676375112406e-41
270.0 440.0 33.0 9.147676375112406e-41
270.0 430.0 32.0 9.147676375112406e-41
270.0 420.0 32.0 9.147676375112406e-41
270.0 410.0 32.0 9.147676375112406e-41
270.0 400.0 32.0 9.147676375112406e-41
270.0 390.0 33.0 9.147676375112406e-41
270.0 380.0 33.0 9.147676375112406e-41
270.0 370.0 33.0 9.147676375112406e-41
270.0 360.0 33.0 9.147676375112406e-41
270.0 350.0 33.0 9.147676375112406e-41
270.0 340.0 33.0 9.147676375112406e-41
270.0 330.0 33.0 9.147676375112406e-41
270.0 320.0 33.0 9.147676375112406e-41
270.0 310.0 33.0 9.147676375112406e-41
270.0 300.0 32.0 9.147676375112406e-41
270.0 290.0 30.0 9.147676375112406e-41
270.0 280.0 29.0 9.147676375112406e-41
270.0 270.0 29.0 9.147676375112406e-41
270.0 260.0 27.0 9.147676375112406e-41
270.0 250.0 25.0 9.147676375112406e-41
270.0 240.0 25.0 9.147676375112406e-41
270.0 230.0 25.0 9.147676375112406e-41
270.0 220.0 25.0 9.147676375112406e-41
270.0 210.0 25.0 9.147676375112406e-41
270.0 200.0 24.0 9.147676375112406e-41
270.0 190.0 23.0 9.147676375112406e-41
270.0 180.0 22.0 9.147676375112406e-41
270.0 170.0 21.0 9.147676375112406e-41
270.0 160.0 21.0 9.147676375112406e-41
270.0 150.0 20.0 9.147676375112406e-41
270.0 140.0 19.0 9.147676375112406e-41
270.0 130.0 19.0 9.147676375112406e-41
270.0 120.0 18.0 9.147676375112406e-41
270.0 110.0 18.0 9.147676375112406e-41
270.0 100.0 17.0 9.147676375112406e-41
270.0 90.0 17.0 9.147676375112406e-41
270.0 80.0 17.0 9.147676375112406e-41
270.0 70.0 16.0 9.147676375112406e-41
270.0 60.0 16.0 9.147676375112406e-41
270.0 50.0 14.0 9.147676375112406e-41
270.0 40.0 11.0 9.147676375112406e-41
270.0 30.0 11.0 9.147676375112406e-41
270.0 20.0 12.0 9.147676375112406e-41
270.0 10.0 9.0 9.147676375112406e-41
270.0 0.0 9.0 9.147676375112406e-41
280.0 10.0 2.0 9.147676375112406e-41
280.0 20.0 2.0 9.147676375112406e-41
280.0 30.0 11.0 9.147676375112406e-41
280.0 40.0 12.0 9.147676375112406e-41
280.0 50.0 13.0 9.147676375112406e-41
280.0 60.0 13.0 9.147676375112406e-41
280.0 70.0 15.0 9.147676375112406e-41
280.0 80.0 16.0 9.147676375112406e-41
280.0 90.0 17.0 9.147676375112406e-41
280.0 100.0 18.0 9.147676375112406e-41
280.0 110.0 18.0 9.147676375112406e-41
280.0 120.0 18.0 9.147676375112406e-41
280.0 130.0 19.0 9.147676375112406e-41
280.0 140.0 19.0 9.147676375112406e-41
280.0 150.0 21.0 9.147676375112406e-41
280.0 160.0 21.0 9.147676375112406e-41
280.0 170.0 21.0 9.147676375112406e-41
280.0 180.0 22.0 9.147676375112406e-41
280.0 190.0 22.0 9.147676375112406e-41
280.0 200.0 23.0 9.147676375112406e-41
280.0 210.0 23.0 9.147676375112406e-41
280.0 220.0 24.0 9.147676375112406e-41
280.0 230.0 25.0 9.147676375112406e-41
280.0 240.0 26.0 9.147676375112406e-41
280.0 250.0 24.0 9.147676375112406e-41
280.0 260.0 26.0 9.147676375112406e-41
280.0 270.0 27.0 9.147676375112406e-41
280.0 280.0 27.0 9.147676375112406e-41
280.0 290.0 27.0 9.147676375112406e-41
280.0 300.0 29.0 9.147676375112406e-41
280.0 310.0 31.0 9.147676375112406e-41
280.0 320.0 32.0 9.147676375112406e-41
280.0 330.0 31.0 9.147676375112406e-41
280.0 340.0 32.0 9.147676375112406e-41
280.0 350.0 32.0 9.147676375112406e-41
280.0 360.0 32.0 9.147676375112406e-41
280.0 370.0 32.0 9.147676375112406e-41
280.0 380.0 32.0 9.147676375112406e-41
280.0 390.0 32.0 9.147676375112406e-41
280.0 400.0 33.0 9.147676375112406e-41
280.0 410.0 32.0 9.147676375112406e-41
280.0 420.0 33.0 9.147676375112406e-41
280.0 430.0 32.0 9.147676375112406e-41
280.0 440.0 32.0 9.147676375112406e-41
280.0 450.0 32.0 9.147676375112406e-41
280.0 460.0 34.0 9.147676375112406e-41
280.0 470.0 33.0 9.147676375112406e-41
280.0 480.0 33.0 9.147676375112406e-41
280.0 490.0 33.0 9.147676375112406e-41
280.0 500.0 31.0 9.147676375112406e-41
290.0 500.0 32.0 9.147676375112406e-41
290.0 490.0 33.0 9.147676375112406e-41
290.0 480.0 33.0 9.147676375112406e-41
290.0 470.0 33.0 9.147676375112406e-41
290.0 460.0 34.0 9.147676375112406e-41
290.0 450.0 34.0 9.147676375112406e-41
290.0 440.0 33.0 9.147676375112406e-41
290.0 430.0 33.0 9.147676375112406e-41
290.0 420.0 33.0 9.147676375112406e-41
290.0 410.0 33.0 9.147676375112406e-41
290.0 400.0 33.0 9.147676375112406e-41
290.0 390.0 33.0 9.147676375112406e-41
290.0 380.0 34.0 9.147676375112406e-41
290.0 370.0 33.0 9.147676375112406e-41
290.0 360.0 34.0 9.147676375112406e-41
290.0 350.0 34.0 9.147676375112406e-41
290.0 340.0 34.0 9.147676375112406e-41
290.0 330.0 33.0 9.147676375112406e-41
290.0 320.0 33.0 9.147676375112406e-41
290.0 310.0 32.0 9.147676375112406e-41
290.0 300.0 31.0 9.147676375112406e-41
