0.00 110.00 2.00
0.00 230.00 3.00
10.00 250.00 7.00
10.00 240.00 4.00
10.00 230.00 4.00
10.00 50.00 3.00
10.00 40.00 3.00
20.00 230.00 5.00
20.00 240.00 7.00
20.00 250.00 9.00
20.00 260.00 9.00
20.00 270.00 9.00
20.00 280.00 5.00
20.00 290.00 2.00
20.00 460.00 2.00
30.00 500.00 5.00
30.00 490.00 4.00
30.00 480.00 6.00
30.00 470.00 7.00
30.00 460.00 8.00
30.00 450.00 9.00
30.00 440.00 9.00
30.00 430.00 8.00
30.00 420.00 7.00
30.00 410.00 6.00
30.00 400.00 6.00
30.00 390.00 4.00
30.00 380.00 3.00
30.00 320.00 2.00
30.00 310.00 4.00
30.00 300.00 5.00
30.00 290.00 7.00
30.00 280.00 8.00
30.00 270.00 8.00
30.00 260.00 13.00
30.00 250.00 12.00
30.00 240.00 9.00
30.00 230.00 7.00
30.00 220.00 4.00
30.00 210.00 3.00
30.00 60.00 2.00
30.00 40.00 3.00
40.00 210.00 2.00
40.00 220.00 5.00
40.00 230.00 7.00
40.00 240.00 8.00
40.00 250.00 10.00
40.00 260.00 10.00
40.00 270.00 12.00
40.00 280.00 12.00
40.00 290.00 6.00
40.00 300.00 3.00
40.00 310.00 3.00
40.00 340.00 2.00
40.00 360.00 2.00
40.00 370.00 4.00
40.00 380.00 4.00
40.00 390.00 7.00
40.00 400.00 7.00
40.00 410.00 8.00
40.00 420.00 10.00
40.00 430.00 8.00
40.00 440.00 8.00
40.00 450.00 9.00
40.00 460.00 9.00
40.00 470.00 9.00
40.00 480.00 9.00
40.00 490.00 8.00
40.00 500.00 7.00
50.00 500.00 9.00
50.00 490.00 12.00
50.00 480.00 10.00
50.00 470.00 10.00
50.00 460.00 12.00
50.00 450.00 12.00
50.00 440.00 10.00
50.00 430.00 12.00
50.00 420.00 10.00
50.00 410.00 8.00
50.00 400.00 5.00
50.00 390.00 5.00
50.00 380.00 2.00
50.00 370.00 3.00
50.00 360.00 3.00
50.00 350.00 5.00
50.00 340.00 6.00
50.00 330.00 6.00
50.00 320.00 6.00
50.00 310.00 6.00
50.00 300.00 9.00
50.00 290.00 10.00
50.00 280.00 13.00
50.00 270.00 12.00
50.00 260.00 12.00
50.00 250.00 12.00
50.00 240.00 10.00
50.00 230.00 8.00
50.00 220.00 5.00
50.00 210.00 2.00
50.00 200.00 3.00
50.00 170.00 4.00
50.00 160.00 4.00
50.00 150.00 4.00
50.00 140.00 3.00
50.00 130.00 2.00
50.00 60.00 2.00
50.00 50.00 2.00
60.00 100.00 3.00
60.00 110.00 4.00
60.00 120.00 4.00
60.00 130.00 5.00
60.00 140.00 7.00
60.00 150.00 7.00
60.00 160.00 7.00
60.00 170.00 7.00
60.00 180.00 2.00
60.00 190.00 4.00
60.00 200.00 4.00
60.00 210.00 4.00
60.00 220.00 6.00
60.00 230.00 8.00
60.00 240.00 9.00
60.00 250.00 10.00
60.00 260.00 10.00
60.00 270.00 10.00
60.00 280.00 5.00
60.00 290.00 6.00
60.00 300.00 4.00
60.00 310.00 3.00
60.00 330.00 3.00
60.00 360.00 4.00
60.00 370.00 5.00
60.00 380.00 7.00
60.00 390.00 10.00
60.00 400.00 12.00
60.00 410.00 10.00
60.00 420.00 12.00
60.00 430.00 12.00
60.00 440.00 13.00
60.00 450.00 12.00
60.00 460.00 12.00
60.00 470.00 12.00
60.00 480.00 12.00
60.00 490.00 12.00
60.00 500.00 12.00
70.00 500.00 12.00
70.00 490.00 13.00
70.00 480.00 13.00
70.00 470.00 14.00
70.00 460.00 14.00
70.00 450.00 13.00
70.00 440.00 13.00
70.00 430.00 13.00
70.00 420.00 13.00
70.00 410.00 12.00
70.00 400.00 12.00
70.00 390.00 8.00
70.00 380.00 4.00
70.00 370.00 3.00
70.00 360.00 4.00
70.00 350.00 5.00
70.00 340.00 6.00
70.00 330.00 3.00
70.00 320.00 5.00
70.00 310.00 6.00
70.00 300.00 8.00
70.00 290.00 12.00
70.00 280.00 12.00
70.00 270.00 13.00
70.00 260.00 13.00
70.00 250.00 13.00
70.00 240.00 10.00
70.00 230.00 7.00
70.00 220.00 6.00
70.00 210.00 6.00
70.00 200.00 7.00
70.00 190.00 7.00
70.00 180.00 5.00
70.00 170.00 9.00
70.00 160.00 10.00
70.00 150.00 10.00
70.00 140.00 8.00
70.00 130.00 6.00
70.00 120.00 6.00
70.00 110.00 3.00
70.00 50.00 3.00
80.00 90.00 2.00
80.00 100.00 6.00
80.00 110.00 7.00
80.00 120.00 7.00
80.00 130.00 9.00
80.00 140.00 8.00
80.00 150.00 10.00
80.00 160.00 8.00
80.00 170.00 4.00
80.00 180.00 4.00
80.00 190.00 5.00
80.00 200.00 5.00
80.00 210.00 7.00
80.00 220.00 9.00
80.00 230.00 12.00
80.00 240.00 12.00
80.00 250.00 12.00
80.00 260.00 13.00
80.00 270.00 13.00
80.00 280.00 14.00
80.00 290.00 9.00
80.00 300.00 5.00
80.00 310.00 3.00
80.00 320.00 3.00
80.00 330.00 6.00
80.00 340.00 3.00
80.00 350.00 3.00
80.00 360.00 7.00
80.00 370.00 7.00
80.00 380.00 12.00
80.00 390.00 12.00
80.00 400.00 12.00
80.00 410.00 12.00
80.00 420.00 12.00
80.00 430.00 13.00
80.00 440.00 13.00
80.00 450.00 13.00
80.00 460.00 14.00
80.00 470.00 13.00
80.00 480.00 13.00
80.00 490.00 12.00
80.00 500.00 12.00
90.00 500.00 14.00
90.00 490.00 14.00
90.00 480.00 16.00
90.00 470.00 16.00
90.00 460.00 16.00
90.00 450.00 16.00
90.00 440.00 16.00
90.00 430.00 16.00
90.00 420.00 15.00
90.00 410.00 15.00
90.00 400.00 14.00
90.00 390.00 13.00
90.00 380.00 9.00
90.00 370.00 5.00
90.00 360.00 5.00
90.00 350.00 5.00
90.00 340.00 6.00
90.00 330.00 8.00
90.00 320.00 8.00
90.00 310.00 9.00
90.00 300.00 12.00
90.00 290.00 12.00
90.00 280.00 15.00
90.00 270.00 15.00
90.00 260.00 14.00
90.00 250.00 14.00
90.00 240.00 10.00
90.00 230.00 10.00
90.00 220.00 9.00
90.00 210.00 9.00
90.00 200.00 8.00
90.00 190.00 10.00
90.00 180.00 6.00
90.00 170.00 10.00
90.00 160.00 12.00
90.00 150.00 10.00
90.00 140.00 9.00
90.00 130.00 9.00
90.00 120.00 8.00
90.00 110.00 6.00
90.00 100.00 4.00
90.00 90.00 2.00
90.00 70.00 2.00
90.00 60.00 3.00
90.00 50.00 2.00
100.00 70.00 2.00
100.00 80.00 4.00
100.00 90.00 6.00
100.00 100.00 7.00
100.00 110.00 8.00
100.00 120.00 8.00
100.00 130.00 12.00
100.00 140.00 10.00
100.00 150.00 10.00
100.00 160.00 10.00
100.00 170.00 3.00
100.00 180.00 8.00
100.00 190.00 8.00
100.00 200.00 9.00
100.00 210.00 9.00
100.00 220.00 10.00
100.00 230.00 13.00
100.00 240.00 15.00
100.00 250.00 15.00
100.00 260.00 15.00
100.00 270.00 15.00
100.00 280.00 15.00
100.00 290.00 9.00
100.00 300.00 6.00
100.00 310.00 4.00
100.00 320.00 8.00
100.00 330.00 7.00
100.00 340.00 7.00
100.00 350.00 9.00
100.00 360.00 10.00
100.00 370.00 13.00
100.00 380.00 15.00
100.00 390.00 15.00
100.00 400.00 15.00
100.00 410.00 15.00
100.00 420.00 15.00
100.00 430.00 16.00
100.00 440.00 16.00
100.00 450.00 15.00
100.00 460.00 16.00
100.00 470.00 15.00
100.00 480.00 14.00
100.00 490.00 14.00
100.00 500.00 12.00
110.00 500.00 14.00
110.00 490.00 14.00
110.00 480.00 17.00
110.00 470.00 18.00
110.00 460.00 17.00
110.00 450.00 17.00
110.00 440.00 18.00
110.00 430.00 18.00
110.00 420.00 18.00
110.00 410.00 17.00
110.00 400.00 17.00
110.00 390.00 16.00
110.00 380.00 14.00
110.00 370.00 13.00
110.00 360.00 10.00
110.00 350.00 9.00
110.00 340.00 10.00
110.00 330.00 10.00
110.00 320.00 10.00
110.00 310.00 9.00
110.00 300.00 13.00
110.00 290.00 15.00
110.00 280.00 16.00
110.00 270.00 17.00
110.00 260.00 17.00
110.00 250.00 16.00
110.00 240.00 16.00
110.00 230.00 13.00
110.00 220.00 13.00
110.00 210.00 10.00
110.00 200.00 10.00
110.00 190.00 10.00
110.00 180.00 8.00
110.00 170.00 8.00
110.00 160.00 13.00
110.00 150.00 13.00
110.00 140.00 13.00
110.00 130.00 13.00
110.00 120.00 10.00
110.00 110.00 10.00
110.00 100.00 7.00
110.00 90.00 4.00
110.00 70.00 3.00
110.00 60.00 2.00
110.00 50.00 2.00
120.00 70.00 7.00
120.00 80.00 8.00
120.00 90.00 12.00
120.00 100.00 12.00
120.00 110.00 13.00
120.00 120.00 13.00
120.00 130.00 13.00
120.00 140.00 14.00
120.00 150.00 14.00
120.00 160.00 12.00
120.00 170.00 12.00
120.00 180.00 12.00
120.00 190.00 14.00
120.00 200.00 14.00
120.00 210.00 14.00
120.00 220.00 16.00
120.00 230.00 16.00
120.00 240.00 18.00
120.00 250.00 18.00
120.00 260.00 17.00
120.00 270.00 18.00
120.00 280.00 12.00
120.00 290.00 8.00
120.00 300.00 12.00
120.00 310.00 12.00
120.00 320.00 10.00
120.00 330.00 13.00
120.00 340.00 13.00
120.00 350.00 15.00
120.00 360.00 16.00
120.00 370.00 17.00
120.00 380.00 17.00
120.00 390.00 17.00
120.00 400.00 17.00
120.00 410.00 17.00
120.00 420.00 17.00
120.00 430.00 16.00
120.00 440.00 17.00
120.00 450.00 16.00
120.00 460.00 14.00
120.00 470.00 13.00
120.00 480.00 13.00
120.00 490.00 12.00
120.00 500.00 12.00
130.00 500.00 13.00
130.00 490.00 13.00
130.00 480.00 15.00
130.00 470.00 17.00
130.00 460.00 18.00
130.00 450.00 19.00
130.00 440.00 19.00
130.00 430.00 20.00
130.00 420.00 19.00
130.00 410.00 19.00
130.00 400.00 19.00
130.00 390.00 18.00
130.00 380.00 18.00
130.00 370.00 18.00
130.00 360.00 16.00
130.00 350.00 15.00
130.00 340.00 14.00
130.00 330.00 13.00
130.00 320.00 14.00
130.00 310.00 15.00
130.00 300.00 16.00
130.00 290.00 15.00
130.00 280.00 19.00
130.00 270.00 18.00
130.00 260.00 19.00
130.00 250.00 19.00
130.00 240.00 19.00
130.00 230.00 17.00
130.00 220.00 16.00
130.00 210.00 15.00
130.00 200.00 15.00
130.00 190.00 14.00
130.00 180.00 13.00
130.00 170.00 15.00
130.00 160.00 16.00
130.00 150.00 16.00
130.00 140.00 14.00
130.00 130.00 15.00
130.00 120.00 15.00
130.00 110.00 13.00
130.00 100.00 13.00
130.00 90.00 10.00
130.00 80.00 7.00
130.00 70.00 4.00
130.00 60.00 3.00
130.00 50.00 3.00
130.00 40.00 2.00
140.00 60.00 3.00
140.00 70.00 10.00
140.00 80.00 12.00
140.00 90.00 14.00
140.00 100.00 14.00
140.00 110.00 14.00
140.00 120.00 15.00
140.00 130.00 15.00
140.00 140.00 15.00
140.00 150.00 16.00
140.00 160.00 16.00
140.00 170.00 14.00
140.00 180.00 14.00
140.00 190.00 15.00
140.00 200.00 15.00
140.00 210.00 16.00
140.00 220.00 18.00
140.00 230.00 20.00
140.00 240.00 20.00
140.00 250.00 21.00
140.00 260.00 20.00
140.00 270.00 20.00
140.00 280.00 16.00
140.00 290.00 14.00
140.00 300.00 15.00
140.00 310.00 14.00
140.00 320.00 14.00
140.00 330.00 15.00
140.00 340.00 15.00
140.00 350.00 17.00
140.00 360.00 18.00
140.00 370.00 18.00
140.00 380.00 19.00
140.00 390.00 19.00
140.00 400.00 19.00
140.00 410.00 19.00
140.00 420.00 18.00
140.00 430.00 18.00
140.00 440.00 18.00
140.00 450.00 18.00
140.00 460.00 16.00
140.00 470.00 15.00
140.00 480.00 14.00
140.00 490.00 12.00
140.00 500.00 12.00
150.00 500.00 14.00
150.00 490.00 14.00
150.00 480.00 15.00
150.00 470.00 19.00
150.00 460.00 20.00
150.00 450.00 21.00
150.00 440.00 22.00
150.00 430.00 22.00
150.00 420.00 23.00
150.00 410.00 23.00
150.00 400.00 23.00
150.00 390.00 22.00
150.00 380.00 21.00
150.00 370.00 21.00
150.00 360.00 20.00
150.00 350.00 19.00
150.00 340.00 19.00
150.00 330.00 17.00
150.00 320.00 16.00
150.00 310.00 17.00
150.00 300.00 18.00
150.00 290.00 22.00
150.00 280.00 19.00
150.00 270.00 23.00
150.00 260.00 27.00
150.00 250.00 27.00
150.00 240.00 25.00
150.00 230.00 21.00
150.00 220.00 17.00
150.00 210.00 16.00
150.00 200.00 17.00
150.00 190.00 18.00
150.00 180.00 17.00
150.00 170.00 18.00
150.00 160.00 19.00
150.00 150.00 18.00
150.00 140.00 18.00
150.00 130.00 18.00
150.00 120.00 18.00
150.00 110.00 17.00
150.00 100.00 15.00
150.00 90.00 13.00
150.00 80.00 9.00
150.00 70.00 5.00
150.00 60.00 4.00
150.00 50.00 3.00
150.00 40.00 4.00
150.00 30.00 2.00
150.00 10.00 3.00
160.00 0.00 4.00
160.00 10.00 3.00
160.00 20.00 3.00
160.00 50.00 2.00
160.00 60.00 9.00
160.00 70.00 14.00
160.00 80.00 15.00
160.00 90.00 16.00
160.00 100.00 17.00
160.00 110.00 18.00
160.00 120.00 18.00
160.00 130.00 19.00
160.00 140.00 18.00
160.00 150.00 18.00
160.00 160.00 18.00
160.00 170.00 18.00
160.00 180.00 18.00
160.00 190.00 18.00
160.00 200.00 18.00
160.00 210.00 21.00
160.00 220.00 25.00
160.00 230.00 25.00
160.00 240.00 26.00
160.00 250.00 25.00
160.00 260.00 23.00
160.00 270.00 22.00
160.00 280.00 20.00
160.00 290.00 19.00
160.00 300.00 17.00
160.00 310.00 18.00
160.00 320.00 19.00
160.00 330.00 20.00
160.00 340.00 20.00
160.00 350.00 21.00
160.00 360.00 21.00
160.00 370.00 22.00
160.00 380.00 22.00
160.00 390.00 22.00
160.00 400.00 21.00
160.00 410.00 21.00
160.00 420.00 20.00
160.00 430.00 19.00
160.00 440.00 18.00
160.00 450.00 18.00
160.00 460.00 14.00
160.00 470.00 14.00
160.00 480.00 14.00
160.00 490.00 9.00
160.00 500.00 10.00
170.00 500.00 13.00
170.00 490.00 13.00
170.00 480.00 15.00
170.00 470.00 18.00
170.00 460.00 19.00
170.00 450.00 21.00
170.00 440.00 22.00
170.00 430.00 22.00
170.00 420.00 23.00
170.00 410.00 23.00
170.00 400.00 24.00
170.00 390.00 25.00
170.00 380.00 23.00
170.00 370.00 23.00
170.00 360.00 23.00
170.00 350.00 21.00
170.00 340.00 20.00
170.00 330.00 20.00
170.00 320.00 19.00
170.00 310.00 19.00
170.00 300.00 20.00
170.00 290.00 22.00
170.00 280.00 23.00
170.00 270.00 23.00
170.00 260.00 25.00
170.00 250.00 24.00
170.00 240.00 24.00
170.00 230.00 23.00
170.00 220.00 21.00
170.00 210.00 19.00
170.00 200.00 19.00
170.00 190.00 19.00
170.00 180.00 20.00
170.00 170.00 19.00
170.00 160.00 20.00
170.00 150.00 19.00
170.00 140.00 20.00
170.00 130.00 19.00
170.00 120.00 19.00
170.00 110.00 17.00
170.00 100.00 16.00
170.00 90.00 13.00
170.00 80.00 10.00
170.00 70.00 8.00
170.00 60.00 5.00
170.00 50.00 7.00
170.00 40.00 4.00
170.00 30.00 3.00
170.00 20.00 6.00
170.00 10.00 6.00
170.00 0.00 7.00
180.00 0.00 6.00
180.00 10.00 7.00
180.00 20.00 5.00
180.00 30.00 6.00
180.00 40.00 3.00
180.00 50.00 3.00
180.00 60.00 10.00
180.00 70.00 14.00
180.00 80.00 15.00
180.00 90.00 17.00
180.00 100.00 18.00
180.00 110.00 19.00
180.00 120.00 19.00
180.00 130.00 20.00
180.00 140.00 19.00
180.00 150.00 19.00
180.00 160.00 19.00
180.00 170.00 19.00
180.00 180.00 19.00
180.00 190.00 20.00
180.00 200.00 21.00
180.00 210.00 22.00
180.00 220.00 22.00
180.00 230.00 24.00
180.00 240.00 24.00
180.00 250.00 24.00
180.00 260.00 23.00
180.00 270.00 23.00
180.00 280.00 22.00
180.00 290.00 21.00
180.00 300.00 22.00
180.00 310.00 21.00
180.00 320.00 22.00
180.00 330.00 22.00
180.00 340.00 23.00
180.00 350.00 23.00
180.00 360.00 23.00
180.00 370.00 23.00
180.00 380.00 23.00
180.00 390.00 23.00
180.00 400.00 22.00
180.00 410.00 21.00
180.00 420.00 20.00
180.00 430.00 19.00
180.00 440.00 19.00
180.00 450.00 18.00
180.00 460.00 16.00
180.00 470.00 13.00
180.00 480.00 13.00
180.00 490.00 10.00
180.00 500.00 10.00
190.00 500.00 13.00
190.00 490.00 14.00
190.00 480.00 17.00
190.00 470.00 19.00
190.00 460.00 19.00
190.00 450.00 22.00
190.00 440.00 23.00
190.00 430.00 23.00
190.00 420.00 23.00
190.00 410.00 26.00
190.00 400.00 25.00
190.00 390.00 25.00
190.00 380.00 26.00
190.00 370.00 25.00
190.00 360.00 24.00
190.00 350.00 25.00
190.00 340.00 24.00
190.00 330.00 23.00
190.00 320.00 23.00
190.00 310.00 23.00
190.00 300.00 23.00
190.00 290.00 23.00
190.00 280.00 24.00
190.00 270.00 24.00
190.00 260.00 25.00
190.00 250.00 25.00
190.00 240.00 25.00
190.00 230.00 25.00
190.00 220.00 24.00
190.00 210.00 22.00
190.00 200.00 21.00
190.00 190.00 21.00
190.00 180.00 21.00
190.00 170.00 21.00
190.00 160.00 20.00
190.00 150.00 21.00
190.00 140.00 21.00
190.00 130.00 20.00
190.00 120.00 19.00
190.00 110.00 18.00
190.00 100.00 16.00
190.00 90.00 14.00
190.00 80.00 12.00
190.00 70.00 8.00
190.00 60.00 7.00
190.00 50.00 7.00
190.00 40.00 9.00
190.00 30.00 8.00
190.00 20.00 9.00
190.00 10.00 9.00
190.00 0.00 9.00
200.00 0.00 8.00
200.00 10.00 8.00
200.00 20.00 8.00
200.00 30.00 9.00
200.00 40.00 9.00
200.00 50.00 10.00
200.00 60.00 14.00
200.00 70.00 15.00
200.00 80.00 17.00
200.00 90.00 18.00
200.00 100.00 19.00
200.00 110.00 20.00
200.00 120.00 20.00
200.00 130.00 21.00
200.00 140.00 20.00
200.00 150.00 22.00
200.00 160.00 22.00
200.00 170.00 23.00
200.00 180.00 23.00
200.00 190.00 25.00
200.00 200.00 26.00
200.00 210.00 27.00
200.00 220.00 27.00
200.00 230.00 29.00
200.00 240.00 27.00
200.00 250.00 27.00
200.00 260.00 26.00
200.00 270.00 27.00
200.00 280.00 26.00
200.00 290.00 26.00
200.00 300.00 26.00
200.00 310.00 27.00
200.00 320.00 29.00
200.00 330.00 27.00
200.00 340.00 27.00
200.00 350.00 26.00
200.00 360.00 26.00
200.00 370.00 25.00
200.00 380.00 25.00
200.00 390.00 25.00
200.00 400.00 23.00
200.00 410.00 21.00
200.00 420.00 21.00
200.00 430.00 20.00
200.00 440.00 20.00
200.00 450.00 17.00
200.00 460.00 16.00
200.00 470.00 13.00
200.00 480.00 10.00
200.00 490.00 8.00
200.00 500.00 10.00
210.00 500.00 10.00
210.00 490.00 12.00
210.00 480.00 18.00
210.00 470.00 20.00
210.00 460.00 21.00
210.00 450.00 23.00
210.00 440.00 24.00
210.00 430.00 26.00
210.00 420.00 27.00
210.00 410.00 29.00
210.00 400.00 30.00
210.00 390.00 30.00
210.00 380.00 30.00
210.00 370.00 30.00
210.00 360.00 31.00
210.00 350.00 31.00
210.00 340.00 32.00
210.00 330.00 32.00
210.00 320.00 30.00
210.00 310.00 31.00
210.00 300.00 31.00
210.00 290.00 30.00
210.00 280.00 31.00
210.00 270.00 30.00
210.00 260.00 29.00
210.00 250.00 30.00
210.00 240.00 31.00
210.00 230.00 30.00
210.00 220.00 31.00
210.00 210.00 29.00
210.00 200.00 29.00
210.00 190.00 26.00
210.00 180.00 26.00
210.00 170.00 26.00
210.00 160.00 24.00
210.00 150.00 25.00
210.00 140.00 23.00
210.00 130.00 22.00
210.00 120.00 22.00
210.00 110.00 20.00
210.00 100.00 18.00
210.00 90.00 17.00
210.00 80.00 15.00
210.00 70.00 14.00
210.00 60.00 13.00
210.00 50.00 13.00
210.00 40.00 12.00
210.00 30.00 10.00
210.00 20.00 10.00
210.00 10.00 12.00
210.00 0.00 10.00
220.00 0.00 12.00
220.00 10.00 13.00
220.00 20.00 14.00
220.00 30.00 15.00
220.00 40.00 15.00
220.00 50.00 15.00
220.00 60.00 17.00
220.00 70.00 18.00
220.00 80.00 19.00
220.00 90.00 19.00
220.00 100.00 21.00
220.00 110.00 21.00
220.00 120.00 22.00
220.00 130.00 23.00
220.00 140.00 24.00
220.00 150.00 25.00
220.00 160.00 27.00
220.00 170.00 29.00
220.00 180.00 30.00
220.00 190.00 30.00
220.00 200.00 31.00
220.00 210.00 31.00
220.00 220.00 29.00
220.00 230.00 30.00
220.00 240.00 31.00
220.00 250.00 31.00
220.00 260.00 31.00
220.00 270.00 32.00
220.00 280.00 31.00
220.00 290.00 32.00
220.00 300.00 31.00
220.00 310.00 31.00
220.00 320.00 30.00
220.00 330.00 31.00
220.00 340.00 31.00
220.00 350.00 31.00
220.00 360.00 30.00
220.00 370.00 30.00
220.00 380.00 29.00
220.00 390.00 29.00
220.00 400.00 27.00
220.00 410.00 25.00
220.00 420.00 24.00
220.00 430.00 23.00
220.00 440.00 22.00
220.00 450.00 21.00
220.00 460.00 20.00
220.00 470.00 17.00
220.00 480.00 15.00
220.00 490.00 12.00
220.00 500.00 13.00
230.00 500.00 14.00
230.00 490.00 17.00
230.00 480.00 21.00
230.00 470.00 24.00
230.00 460.00 26.00
230.00 450.00 29.00
230.00 440.00 29.00
230.00 430.00 30.00
230.00 420.00 31.00
230.00 410.00 32.00
230.00 400.00 32.00
230.00 390.00 32.00
230.00 380.00 34.00
230.00 370.00 33.00
230.00 360.00 34.00
230.00 350.00 33.00
230.00 340.00 33.00
230.00 330.00 33.00
230.00 320.00 33.00
230.00 310.00 34.00
230.00 300.00 34.00
230.00 290.00 33.00
230.00 280.00 33.00
230.00 270.00 34.00
230.00 260.00 34.00
230.00 250.00 33.00
230.00 240.00 33.00
230.00 230.00 33.00
230.00 220.00 31.00
230.00 210.00 31.00
230.00 200.00 32.00
230.00 190.00 32.00
230.00 180.00 31.00
230.00 170.00 30.00
230.00 160.00 30.00
230.00 150.00 27.00
230.00 140.00 25.00
230.00 130.00 24.00
230.00 120.00 24.00
230.00 110.00 22.00
230.00 100.00 20.00
230.00 90.00 21.00
230.00 80.00 20.00
230.00 70.00 18.00
230.00 60.00 18.00
230.00 50.00 17.00
230.00 40.00 16.00
230.00 30.00 15.00
230.00 20.00 15.00
230.00 10.00 13.00
230.00 0.00 13.00
240.00 0.00 16.00
240.00 10.00 18.00
240.00 20.00 19.00
240.00 30.00 19.00
240.00 40.00 20.00
240.00 50.00 20.00
240.00 60.00 21.00
240.00 70.00 22.00
240.00 80.00 22.00
240.00 90.00 22.00
240.00 100.00 24.00
240.00 110.00 23.00
240.00 120.00 24.00
240.00 130.00 25.00
240.00 140.00 27.00
240.00 150.00 27.00
240.00 160.00 30.00
240.00 170.00 30.00
240.00 180.00 31.00
240.00 190.00 32.00
240.00 200.00 32.00
240.00 210.00 33.00
240.00 220.00 34.00
240.00 230.00 34.00
240.00 240.00 34.00
240.00 250.00 36.00
240.00 260.00 36.00
240.00 270.00 36.00
240.00 280.00 37.00
240.00 290.00 36.00
240.00 300.00 36.00
240.00 310.00 36.00
240.00 320.00 36.00
240.00 330.00 35.00
240.00 340.00 34.00
240.00 350.00 35.00
240.00 360.00 36.00
240.00 370.00 35.00
240.00 380.00 35.00
240.00 390.00 35.00
240.00 400.00 34.00
240.00 410.00 34.00
240.00 420.00 32.00
240.00 430.00 32.00
240.00 440.00 31.00
240.00 450.00 30.00
240.00 460.00 29.00
240.00 470.00 27.00
240.00 480.00 25.00
240.00 490.00 22.00
240.00 500.00 23.00
250.00 500.00 25.00
250.00 490.00 30.00
250.00 480.00 32.00
250.00 470.00 35.00
250.00 460.00 35.00
250.00 450.00 37.00
250.00 440.00 37.00
250.00 430.00 39.00
250.00 420.00 38.00
250.00 410.00 38.00
250.00 400.00 38.00
250.00 390.00 39.00
250.00 380.00 38.00
250.00 370.00 38.00
250.00 360.00 38.00
250.00 350.00 38.00
250.00 340.00 38.00
250.00 330.00 38.00
250.00 320.00 38.00
250.00 310.00 39.00
250.00 300.00 38.00
250.00 290.00 39.00
250.00 280.00 39.00
250.00 270.00 38.00
250.00 260.00 37.00
250.00 250.00 38.00
250.00 240.00 37.00
250.00 230.00 36.00
250.00 220.00 35.00
250.00 210.00 34.00
250.00 200.00 33.00
250.00 190.00 33.00
250.00 180.00 33.00
250.00 170.00 34.00
250.00 160.00 31.00
250.00 150.00 31.00
250.00 140.00 29.00
250.00 130.00 27.00
250.00 120.00 25.00
250.00 110.00 25.00
250.00 100.00 25.00
250.00 90.00 23.00
250.00 80.00 22.00
250.00 70.00 22.00
250.00 60.00 22.00
250.00 50.00 21.00
250.00 40.00 21.00
250.00 30.00 20.00
250.00 20.00 18.00
250.00 10.00 18.00
250.00 0.00 18.00
260.00 0.00 18.00
260.00 10.00 19.00
260.00 20.00 19.00
260.00 30.00 21.00
260.00 40.00 21.00
260.00 50.00 21.00
260.00 60.00 22.00
260.00 70.00 23.00
260.00 80.00 24.00
260.00 90.00 24.00
260.00 100.00 24.00
260.00 110.00 24.00
260.00 120.00 26.00
260.00 130.00 26.00
260.00 140.00 27.00
260.00 150.00 29.00
260.00 160.00 32.00
260.00 170.00 34.00
260.00 180.00 34.00
260.00 190.00 34.00
260.00 200.00 34.00
260.00 210.00 35.00
260.00 220.00 35.00
260.00 230.00 36.00
260.00 240.00 37.00
260.00 250.00 37.00
260.00 260.00 38.00
260.00 270.00 38.00
260.00 280.00 38.00
260.00 290.00 38.00
260.00 300.00 38.00
260.00 310.00 37.00
260.00 320.00 37.00
260.00 330.00 38.00
260.00 340.00 37.00
260.00 350.00 38.00
260.00 360.00 38.00
260.00 370.00 39.00
260.00 380.00 38.00
260.00 390.00 38.00
260.00 400.00 37.00
260.00 410.00 37.00
260.00 420.00 37.00
260.00 430.00 37.00
260.00 440.00 37.00
260.00 450.00 34.00
260.00 460.00 33.00
260.00 470.00 31.00
260.00 480.00 31.00
260.00 490.00 29.00
260.00 500.00 28.00
270.00 500.00 32.00
270.00 490.00 34.00
270.00 480.00 36.00
270.00 470.00 38.00
270.00 460.00 40.00
270.00 450.00 40.00
270.00 440.00 41.00
270.00 430.00 40.00
270.00 420.00 40.00
270.00 410.00 41.00
270.00 400.00 41.00
270.00 390.00 41.00
270.00 380.00 41.00
270.00 370.00 41.00
270.00 360.00 41.00
270.00 350.00 41.00
270.00 340.00 41.00
270.00 330.00 41.00
270.00 320.00 40.00
270.00 310.00 41.00
270.00 300.00 40.00
270.00 290.00 40.00
270.00 280.00 40.00
270.00 270.00 40.00
270.00 260.00 40.00
270.00 250.00 40.00
270.00 240.00 38.00
270.00 230.00 38.00
270.00 220.00 37.00
270.00 210.00 37.00
270.00 200.00 36.00
270.00 190.00 35.00
270.00 180.00 34.00
270.00 170.00 33.00
270.00 160.00 35.00
270.00 150.00 32.00
270.00 140.00 29.00
270.00 130.00 29.00
270.00 120.00 27.00
270.00 110.00 26.00
270.00 100.00 25.00
270.00 90.00 25.00
270.00 80.00 24.00
270.00 70.00 24.00
270.00 60.00 23.00
270.00 50.00 22.00
270.00 40.00 21.00
270.00 30.00 20.00
270.00 20.00 19.00
270.00 10.00 18.00
270.00 0.00 18.00
280.00 0.00 17.00
280.00 10.00 17.00
280.00 20.00 18.00
280.00 30.00 19.00
280.00 40.00 20.00
280.00 50.00 22.00
280.00 60.00 23.00
280.00 70.00 25.00
280.00 80.00 25.00
280.00 90.00 26.00
280.00 100.00 26.00
280.00 110.00 27.00
280.00 120.00 31.00
280.00 130.00 31.00
280.00 140.00 32.00
280.00 150.00 33.00
280.00 160.00 34.00
280.00 170.00 34.00
280.00 180.00 35.00
280.00 190.00 35.00
280.00 200.00 36.00
280.00 210.00 37.00
280.00 220.00 37.00
280.00 230.00 38.00
280.00 240.00 39.00
280.00 250.00 40.00
280.00 260.00 39.00
280.00 270.00 40.00
280.00 280.00 40.00
280.00 290.00 41.00
280.00 300.00 40.00
280.00 310.00 40.00
280.00 320.00 39.00
280.00 330.00 40.00
280.00 340.00 40.00
280.00 350.00 40.00
280.00 360.00 40.00
280.00 370.00 40.00
280.00 380.00 40.00
280.00 390.00 40.00
280.00 400.00 40.00
280.00 410.00 39.00
280.00 420.00 39.00
280.00 430.00 39.00
280.00 440.00 38.00
280.00 450.00 37.00
280.00 460.00 38.00
280.00 470.00 36.00
280.00 480.00 35.00
280.00 490.00 34.00
280.00 500.00 34.00
290.00 500.00 36.00
290.00 490.00 36.00
290.00 480.00 39.00
290.00 470.00 40.00
290.00 460.00 40.00
290.00 450.00 41.00
290.00 440.00 41.00
290.00 430.00 41.00
290.00 420.00 42.00
290.00 410.00 42.00
290.00 400.00 41.00
290.00 390.00 43.00
290.00 380.00 42.00
290.00 370.00 41.00
290.00 360.00 41.00
290.00 350.00 41.00
290.00 340.00 41.00
290.00 330.00 41.00
290.00 320.00 41.00
290.00 310.00 42.00
290.00 300.00 41.00
