0.00 40.00 2.00
0.00 140.00 2.00
0.00 150.00 2.00
0.00 160.00 3.00
0.00 180.00 2.00
0.00 190.00 2.00
0.00 210.00 3.00
0.00 220.00 2.00
0.00 230.00 2.00
0.00 240.00 2.00
0.00 250.00 2.00
0.00 260.00 2.00
0.00 270.00 3.00
0.00 280.00 2.00
0.00 290.00 3.00
0.00 300.00 5.00
0.00 310.00 2.00
0.00 320.00 3.00
0.00 330.00 3.00
0.00 340.00 3.00
0.00 350.00 4.00
0.00 360.00 5.00
0.00 370.00 4.00
0.00 380.00 4.00
0.00 390.00 4.00
0.00 400.00 4.00
0.00 410.00 5.00
0.00 420.00 3.00
0.00 430.00 4.00
0.00 440.00 3.00
0.00 450.00 4.00
0.00 460.00 4.00
0.00 470.00 3.00
0.00 480.00 3.00
0.00 490.00 4.00
0.00 500.00 3.00
10.00 500.00 3.00
10.00 490.00 3.00
10.00 480.00 2.00
10.00 470.00 3.00
10.00 460.00 3.00
10.00 450.00 3.00
10.00 440.00 3.00
10.00 430.00 3.00
10.00 420.00 4.00
10.00 410.00 3.00
10.00 400.00 3.00
10.00 390.00 3.00
10.00 380.00 3.00
10.00 370.00 3.00
10.00 360.00 3.00
10.00 350.00 2.00
10.00 340.00 2.00
10.00 330.00 3.00
10.00 320.00 3.00
10.00 310.00 3.00
10.00 300.00 2.00
10.00 290.00 2.00
10.00 280.00 2.00
10.00 270.00 3.00
10.00 260.00 2.00
10.00 250.00 2.00
10.00 240.00 3.00
10.00 230.00 2.00
10.00 220.00 2.00
10.00 210.00 2.00
10.00 200.00 2.00
10.00 190.00 2.00
10.00 170.00 2.00
10.00 160.00 2.00
10.00 150.00 2.00
10.00 130.00 2.00
10.00 120.00 3.00
20.00 380.00 2.00
20.00 420.00 3.00
20.00 440.00 2.00
20.00 450.00 2.00
20.00 460.00 2.00
20.00 470.00 2.00
20.00 480.00 3.00
20.00 490.00 2.00
30.00 500.00 2.00
30.00 470.00 3.00
30.00 460.00 2.00
30.00 440.00 3.00
30.00 430.00 2.00
30.00 420.00 3.00
30.00 410.00 2.00
30.00 400.00 2.00
30.00 380.00 2.00
30.00 360.00 2.00
30.00 300.00 2.00
30.00 260.00 2.00
30.00 250.00 2.00
40.00 390.00 2.00
40.00 430.00 2.00
40.00 460.00 3.00
40.00 470.00 2.00
40.00 490.00 2.00
40.00 500.00 2.00
50.00 500.00 3.00
50.00 480.00 3.00
50.00 470.00 3.00
50.00 460.00 5.00
50.00 450.00 8.00
50.00 440.00 12.00
50.00 430.00 14.00
50.00 420.00 16.00
50.00 410.00 17.00
50.00 400.00 18.00
50.00 390.00 18.00
50.00 380.00 18.00
50.00 370.00 18.00
50.00 360.00 17.00
50.00 350.00 17.00
50.00 340.00 18.00
50.00 330.00 18.00
50.00 320.00 17.00
50.00 310.00 18.00
50.00 300.00 17.00
50.00 290.00 18.00
50.00 280.00 18.00
50.00 270.00 16.00
50.00 260.00 15.00
50.00 250.00 10.00
50.00 240.00 3.00
50.00 230.00 2.00
50.00 210.00 2.00
60.00 230.00 5.00
60.00 240.00 10.00
60.00 250.00 14.00
60.00 260.00 17.00
60.00 270.00 18.00
60.00 280.00 18.00
60.00 290.00 17.00
60.00 300.00 17.00
60.00 310.00 18.00
60.00 320.00 17.00
60.00 330.00 16.00
60.00 340.00 17.00
60.00 350.00 16.00
60.00 360.00 16.00
60.00 370.00 17.00
60.00 380.00 17.00
60.00 390.00 17.00
60.00 400.00 19.00
60.00 410.00 17.00
60.00 420.00 18.00
60.00 430.00 16.00
60.00 440.00 13.00
60.00 450.00 9.00
60.00 460.00 8.00
60.00 470.00 5.00
60.00 480.00 4.00
60.00 490.00 3.00
60.00 500.00 3.00
70.00 500.00 3.00
70.00 490.00 5.00
70.00 480.00 7.00
70.00 470.00 10.00
70.00 460.00 13.00
70.00 450.00 17.00
70.00 440.00 18.00
70.00 430.00 18.00
70.00 420.00 19.00
70.00 410.00 18.00
70.00 400.00 18.00
70.00 390.00 17.00
70.00 380.00 17.00
70.00 370.00 17.00
70.00 360.00 18.00
70.00 350.00 18.00
70.00 340.00 17.00
70.00 330.00 19.00
70.00 320.00 18.00
70.00 310.00 18.00
70.00 300.00 17.00
70.00 290.00 18.00
70.00 280.00 18.00
70.00 270.00 20.00
70.00 260.00 18.00
70.00 250.00 17.00
70.00 240.00 9.00
70.00 230.00 3.00
70.00 200.00 2.00
70.00 110.00 2.00
80.00 230.00 7.00
80.00 240.00 11.00
80.00 250.00 14.00
80.00 260.00 19.00
80.00 270.00 19.00
80.00 280.00 18.00
80.00 290.00 18.00
80.00 300.00 17.00
80.00 310.00 18.00
80.00 320.00 18.00
80.00 330.00 18.00
80.00 340.00 17.00
80.00 350.00 18.00
80.00 360.00 18.00
80.00 370.00 17.00
80.00 380.00 17.00
80.00 390.00 18.00
80.00 400.00 18.00
80.00 410.00 18.00
80.00 420.00 16.00
80.00 430.00 16.00
80.00 440.00 12.00
80.00 450.00 8.00
80.00 460.00 8.00
80.00 470.00 4.00
80.00 480.00 4.00
80.00 490.00 2.00
80.00 500.00 3.00
90.00 500.00 7.00
90.00 490.00 4.00
90.00 480.00 7.00
90.00 470.00 8.00
90.00 460.00 15.00
90.00 450.00 17.00
90.00 440.00 18.00
90.00 430.00 18.00
90.00 420.00 18.00
90.00 410.00 18.00
90.00 400.00 18.00
90.00 390.00 18.00
90.00 380.00 17.00
90.00 370.00 17.00
90.00 360.00 18.00
90.00 350.00 16.00
90.00 340.00 17.00
90.00 330.00 19.00
90.00 320.00 18.00
90.00 310.00 18.00
90.00 300.00 18.00
90.00 290.00 17.00
90.00 280.00 19.00
90.00 270.00 19.00
90.00 260.00 19.00
90.00 250.00 14.00
90.00 240.00 8.00
90.00 230.00 4.00
90.00 210.00 2.00
90.00 200.00 2.00
100.00 230.00 2.00
100.00 240.00 8.00
100.00 250.00 11.00
100.00 260.00 15.00
100.00 270.00 17.00
100.00 280.00 16.00
100.00 290.00 16.00
100.00 300.00 17.00
100.00 310.00 17.00
100.00 320.00 16.00
100.00 330.00 17.00
100.00 340.00 16.00
100.00 350.00 16.00
100.00 360.00 17.00
100.00 370.00 15.00
100.00 380.00 15.00
100.00 390.00 15.00
100.00 400.00 14.00
100.00 410.00 12.00
100.00 420.00 11.00
100.00 430.00 9.00
100.00 440.00 4.00
100.00 450.00 7.00
100.00 460.00 4.00
100.00 470.00 3.00
100.00 480.00 2.00
100.00 490.00 3.00
110.00 500.00 4.00
110.00 490.00 3.00
110.00 480.00 3.00
110.00 470.00 4.00
110.00 460.00 4.00
110.00 450.00 7.00
110.00 440.00 8.00
110.00 430.00 8.00
110.00 420.00 10.00
110.00 410.00 11.00
110.00 400.00 11.00
110.00 390.00 10.00
110.00 380.00 12.00
110.00 370.00 12.00
110.00 360.00 12.00
110.00 350.00 12.00
110.00 340.00 12.00
110.00 330.00 12.00
110.00 320.00 12.00
110.00 310.00 11.00
110.00 300.00 11.00
110.00 290.00 10.00
110.00 280.00 7.00
110.00 270.00 7.00
110.00 260.00 3.00
110.00 250.00 2.00
110.00 240.00 3.00
110.00 210.00 2.00
110.00 200.00 2.00
110.00 190.00 2.00
110.00 180.00 2.00
110.00 170.00 2.00
110.00 150.00 3.00
120.00 250.00 2.00
120.00 260.00 2.00
120.00 270.00 5.00
120.00 280.00 9.00
120.00 290.00 11.00
120.00 300.00 11.00
120.00 310.00 12.00
120.00 320.00 14.00
120.00 330.00 14.00
120.00 340.00 13.00
120.00 350.00 14.00
120.00 360.00 13.00
120.00 370.00 13.00
120.00 380.00 13.00
120.00 390.00 12.00
120.00 400.00 11.00
120.00 410.00 9.00
120.00 420.00 7.00
120.00 430.00 5.00
120.00 440.00 4.00
120.00 450.00 4.00
120.00 460.00 2.00
120.00 470.00 2.00
120.00 480.00 2.00
120.00 490.00 3.00
130.00 490.00 2.00
130.00 480.00 3.00
130.00 470.00 4.00
130.00 460.00 4.00
130.00 450.00 7.00
130.00 440.00 9.00
130.00 430.00 10.00
130.00 420.00 11.00
130.00 410.00 10.00
130.00 400.00 16.00
130.00 390.00 17.00
130.00 380.00 16.00
130.00 370.00 16.00
130.00 360.00 16.00
130.00 350.00 17.00
130.00 340.00 17.00
130.00 330.00 17.00
130.00 320.00 16.00
130.00 310.00 16.00
130.00 300.00 14.00
130.00 290.00 13.00
130.00 280.00 10.00
130.00 270.00 7.00
130.00 260.00 3.00
130.00 250.00 2.00
130.00 240.00 2.00
130.00 130.00 2.00
140.00 250.00 5.00
140.00 260.00 13.00
140.00 270.00 19.00
140.00 280.00 21.00
140.00 290.00 24.00
140.00 300.00 24.00
140.00 310.00 26.00
140.00 320.00 26.00
140.00 330.00 25.00
140.00 340.00 26.00
140.00 350.00 26.00
140.00 360.00 25.00
140.00 370.00 24.00
140.00 380.00 22.00
140.00 390.00 21.00
140.00 400.00 19.00
140.00 410.00 14.00
140.00 420.00 8.00
140.00 430.00 4.00
140.00 440.00 3.00
140.00 450.00 2.00
150.00 500.00 2.00
150.00 470.00 2.00
150.00 460.00 2.00
150.00 450.00 5.00
150.00 440.00 8.00
150.00 430.00 11.00
150.00 420.00 17.00
150.00 410.00 22.00
150.00 400.00 25.00
150.00 390.00 27.00
150.00 380.00 29.00
150.00 370.00 30.00
150.00 360.00 30.00
150.00 350.00 30.00
150.00 340.00 31.00
150.00 330.00 31.00
150.00 320.00 30.00
150.00 310.00 31.00
150.00 300.00 30.00
150.00 290.00 29.00
150.00 280.00 28.00
150.00 270.00 25.00
150.00 260.00 15.00
150.00 250.00 7.00
150.00 240.00 7.00
150.00 90.00 2.00
160.00 230.00 5.00
160.00 240.00 9.00
160.00 250.00 21.00
160.00 260.00 29.00
160.00 270.00 32.00
160.00 280.00 35.00
160.00 290.00 33.00
160.00 300.00 33.00
160.00 310.00 35.00
160.00 320.00 33.00
160.00 330.00 34.00
160.00 340.00 34.00
160.00 350.00 35.00
160.00 360.00 34.00
160.00 370.00 34.00
160.00 380.00 33.00
160.00 390.00 26.00
160.00 400.00 20.00
160.00 410.00 14.00
160.00 420.00 9.00
160.00 430.00 5.00
160.00 440.00 2.00
160.00 450.00 2.00
170.00 500.00 2.00
170.00 490.00 2.00
170.00 480.00 2.00
170.00 470.00 2.00
170.00 460.00 4.00
170.00 450.00 4.00
170.00 440.00 9.00
170.00 430.00 13.00
170.00 420.00 19.00
170.00 410.00 21.00
170.00 400.00 27.00
170.00 390.00 31.00
170.00 380.00 33.00
170.00 370.00 35.00
170.00 360.00 36.00
170.00 350.00 37.00
170.00 340.00 35.00
170.00 330.00 36.00
170.00 320.00 36.00
170.00 310.00 35.00
170.00 300.00 35.00
170.00 290.00 36.00
170.00 280.00 36.00
170.00 270.00 35.00
170.00 260.00 31.00
170.00 250.00 25.00
170.00 240.00 12.00
170.00 230.00 4.00
180.00 230.00 2.00
180.00 240.00 4.00
180.00 250.00 8.00
180.00 260.00 17.00
180.00 270.00 21.00
180.00 280.00 25.00
180.00 290.00 26.00
180.00 300.00 27.00
180.00 310.00 28.00
180.00 320.00 28.00
180.00 330.00 27.00
180.00 340.00 26.00
180.00 350.00 27.00
180.00 360.00 27.00
180.00 370.00 26.00
180.00 380.00 24.00
180.00 390.00 20.00
180.00 400.00 18.00
180.00 410.00 10.00
180.00 420.00 9.00
180.00 430.00 5.00
180.00 440.00 3.00
180.00 450.00 2.00
190.00 500.00 2.00
190.00 490.00 3.00
190.00 480.00 3.00
190.00 470.00 5.00
190.00 460.00 5.00
190.00 450.00 7.00
190.00 440.00 9.00
190.00 430.00 11.00
190.00 420.00 13.00
190.00 410.00 16.00
190.00 400.00 19.00
190.00 390.00 22.00
190.00 380.00 24.00
190.00 370.00 24.00
190.00 360.00 25.00
190.00 350.00 26.00
190.00 340.00 26.00
190.00 330.00 26.00
190.00 320.00 26.00
190.00 310.00 26.00
190.00 300.00 26.00
190.00 290.00 26.00
190.00 280.00 21.00
190.00 270.00 16.00
190.00 260.00 8.00
190.00 250.00 4.00
190.00 230.00 2.00
190.00 130.00 2.00
200.00 250.00 2.00
200.00 260.00 4.00
200.00 270.00 4.00
200.00 280.00 8.00
200.00 290.00 9.00
200.00 300.00 10.00
200.00 310.00 10.00
200.00 320.00 10.00
200.00 330.00 10.00
200.00 340.00 10.00
200.00 350.00 9.00
200.00 360.00 9.00
200.00 370.00 8.00
200.00 380.00 8.00
200.00 390.00 7.00
200.00 400.00 5.00
200.00 410.00 5.00
200.00 420.00 4.00
200.00 430.00 4.00
200.00 440.00 3.00
200.00 450.00 2.00
200.00 460.00 2.00
200.00 480.00 2.00
200.00 490.00 3.00
210.00 500.00 2.00
210.00 490.00 3.00
210.00 480.00 2.00
210.00 470.00 2.00
210.00 460.00 3.00
210.00 450.00 2.00
210.00 440.00 2.00
210.00 430.00 2.00
210.00 420.00 3.00
210.00 410.00 3.00
210.00 400.00 4.00
210.00 390.00 3.00
210.00 380.00 4.00
210.00 370.00 3.00
210.00 360.00 4.00
210.00 350.00 4.00
210.00 340.00 3.00
210.00 330.00 4.00
210.00 320.00 3.00
210.00 310.00 4.00
210.00 300.00 3.00
210.00 290.00 3.00
210.00 280.00 3.00
210.00 270.00 2.00
210.00 250.00 2.00
210.00 230.00 2.00
210.00 160.00 2.00
210.00 110.00 2.00
210.00 90.00 2.00
220.00 440.00 2.00
220.00 450.00 2.00
220.00 460.00 3.00
220.00 470.00 2.00
220.00 480.00 4.00
220.00 490.00 3.00
220.00 500.00 3.00
230.00 500.00 3.00
230.00 490.00 3.00
230.00 480.00 3.00
230.00 470.00 3.00
230.00 460.00 3.00
230.00 450.00 2.00
230.00 440.00 3.00
230.00 430.00 2.00
230.00 420.00 2.00
230.00 410.00 2.00
230.00 390.00 2.00
230.00 380.00 2.00
230.00 330.00 2.00
230.00 320.00 2.00
230.00 310.00 2.00
230.00 290.00 2.00
230.00 280.00 2.00
230.00 270.00 2.00
230.00 250.00 2.00
230.00 240.00 2.00
230.00 230.00 2.00
230.00 220.00 2.00
230.00 210.00 2.00
230.00 170.00 2.00
230.00 150.00 2.00
230.00 120.00 2.00
230.00 90.00 2.00
230.00 80.00 2.00
230.00 70.00 2.00
230.00 60.00 2.00
240.00 300.00 2.00
240.00 400.00 2.00
240.00 410.00 2.00
240.00 420.00 2.00
240.00 430.00 2.00
240.00 440.00 3.00
240.00 450.00 3.00
240.00 460.00 2.00
240.00 470.00 3.00
240.00 480.00 3.00
240.00 490.00 2.00
240.00 500.00 2.00
250.00 500.00 3.00
250.00 490.00 3.00
250.00 480.00 4.00
250.00 470.00 3.00
250.00 460.00 3.00
250.00 450.00 3.00
250.00 440.00 3.00
250.00 430.00 3.00
250.00 420.00 2.00
250.00 410.00 3.00
250.00 400.00 2.00
250.00 390.00 3.00
250.00 380.00 2.00
250.00 350.00 2.00
250.00 340.00 2.00
250.00 320.00 3.00
250.00 310.00 2.00
250.00 300.00 2.00
250.00 280.00 2.00
250.00 270.00 2.00
250.00 260.00 2.00
250.00 250.00 2.00
250.00 240.00 2.00
250.00 230.00 2.00
250.00 220.00 2.00
250.00 210.00 2.00
250.00 200.00 2.00
250.00 190.00 2.00
250.00 180.00 3.00
250.00 170.00 3.00
250.00 160.00 3.00
250.00 150.00 3.00
250.00 140.00 3.00
250.00 130.00 3.00
250.00 120.00 3.00
250.00 110.00 3.00
250.00 100.00 2.00
250.00 90.00 2.00
250.00 80.00 2.00
250.00 70.00 2.00
250.00 60.00 2.00
260.00 360.00 3.00
260.00 370.00 3.00
260.00 380.00 2.00
260.00 390.00 2.00
260.00 400.00 2.00
260.00 410.00 3.00
260.00 420.00 4.00
260.00 430.00 4.00
260.00 440.00 4.00
260.00 450.00 4.00
260.00 460.00 4.00
260.00 470.00 4.00
260.00 480.00 4.00
260.00 490.00 3.00
260.00 500.00 4.00
270.00 500.00 5.00
270.00 490.00 5.00
270.00 480.00 5.00
270.00 470.00 4.00
270.00 460.00 5.00
270.00 450.00 5.00
270.00 440.00 5.00
270.00 430.00 5.00
270.00 420.00 3.00
270.00 410.00 5.00
270.00 400.00 5.00
270.00 390.00 4.00
270.00 380.00 4.00
270.00 370.00 4.00
270.00 360.00 3.00
270.00 350.00 4.00
270.00 340.00 2.00
270.00 330.00 2.00
270.00 320.00 3.00
270.00 310.00 2.00
270.00 300.00 2.00
270.00 290.00 2.00
270.00 280.00 2.00
270.00 260.00 3.00
270.00 250.00 2.00
270.00 240.00 3.00
270.00 230.00 3.00
270.00 220.00 2.00
270.00 210.00 2.00
270.00 200.00 3.00
270.00 190.00 2.00
270.00 180.00 2.00
270.00 170.00 3.00
270.00 160.00 3.00
270.00 150.00 2.00
270.00 140.00 3.00
270.00 130.00 2.00
270.00 120.00 3.00
270.00 110.00 2.00
280.00 300.00 2.00
280.00 310.00 3.00
280.00 330.00 3.00
280.00 340.00 4.00
280.00 350.00 2.00
280.00 360.00 3.00
280.00 370.00 2.00
280.00 380.00 4.00
280.00 390.00 3.00
280.00 400.00 4.00
280.00 410.00 3.00
280.00 420.00 4.00
280.00 430.00 4.00
280.00 440.00 4.00
280.00 450.00 5.00
280.00 460.00 4.00
280.00 470.00 4.00
280.00 480.00 4.00
280.00 490.00 4.00
280.00 500.00 4.00
290.00 500.00 4.00
290.00 490.00 5.00
290.00 480.00 4.00
290.00 470.00 4.00
290.00 460.00 4.00
290.00 450.00 5.00
290.00 440.00 5.00
290.00 430.00 5.00
290.00 420.00 5.00
290.00 410.00 4.00
290.00 400.00 5.00
290.00 390.00 4.00
290.00 380.00 3.00
290.00 370.00 4.00
290.00 360.00 5.00
290.00 350.00 3.00
290.00 340.00 4.00
290.00 330.00 2.00
290.00 320.00 3.00
290.00 310.00 2.00
290.00 300.00 2.00
