0.00 15.00 2.00
0.00 50.00 4.00
0.00 65.00 2.00
0.00 70.00 2.00
0.00 75.00 3.00
0.00 80.00 2.00
0.00 85.00 2.00
5.00 75.00 4.00
5.00 70.00 5.00
5.00 65.00 4.00
5.00 60.00 4.00
5.00 55.00 3.00
5.00 50.00 4.00
5.00 45.00 3.00
5.00 40.00 2.00
5.00 35.00 4.00
5.00 30.00 3.00
5.00 15.00 2.00
10.00 20.00 3.00
10.00 25.00 2.00
10.00 30.00 2.00
10.00 35.00 3.00
10.00 45.00 2.00
10.00 50.00 2.00
10.00 55.00 3.00
10.00 60.00 3.00
10.00 65.00 3.00
10.00 70.00 2.00
10.00 75.00 2.00
10.00 80.00 2.00
10.00 90.00 2.00
25.00 60.00 3.00
30.00 75.00 2.00
35.00 60.00 2.00
35.00 55.00 4.00
35.00 50.00 2.00
35.00 45.00 3.00
35.00 40.00 2.00
35.00 30.00 2.00
40.00 30.00 2.00
40.00 35.00 3.00
40.00 40.00 2.00
40.00 45.00 3.00
40.00 50.00 3.00
40.00 55.00 3.00
40.00 60.00 2.00
40.00 65.00 4.00
40.00 70.00 3.00
40.00 75.00 3.00
40.00 80.00 2.00
40.00 85.00 2.00
40.00 170.00 2.00
40.00 180.00 3.00
40.00 185.00 14.00
40.00 190.00 20.00
40.00 195.00 21.00
40.00 200.00 23.00
45.00 200.00 24.00
45.00 195.00 30.00
45.00 190.00 28.00
45.00 185.00 27.00
45.00 180.00 27.00
45.00 175.00 27.00
45.00 170.00 24.00
45.00 165.00 20.00
45.00 160.00 17.00
45.00 155.00 12.00
45.00 150.00 6.00
45.00 145.00 5.00
45.00 140.00 3.00
45.00 135.00 7.00
45.00 130.00 6.00
45.00 125.00 6.00
45.00 120.00 7.00
45.00 115.00 6.00
45.00 110.00 6.00
45.00 105.00 5.00
45.00 100.00 7.00
45.00 95.00 5.00
45.00 90.00 6.00
45.00 85.00 6.00
45.00 80.00 7.00
45.00 75.00 6.00
45.00 70.00 7.00
45.00 65.00 8.00
45.00 60.00 7.00
45.00 55.00 7.00
45.00 50.00 7.00
45.00 45.00 8.00
45.00 40.00 8.00
45.00 35.00 9.00
45.00 30.00 8.00
45.00 25.00 8.00
45.00 20.00 9.00
45.00 15.00 8.00
45.00 10.00 6.00
45.00 5.00 5.00
45.00 0.00 5.00
50.00 0.00 3.00
50.00 5.00 3.00
50.00 10.00 4.00
50.00 15.00 5.00
50.00 20.00 6.00
50.00 25.00 6.00
50.00 30.00 7.00
50.00 35.00 6.00
50.00 40.00 6.00
50.00 45.00 6.00
50.00 50.00 6.00
50.00 55.00 6.00
50.00 60.00 6.00
50.00 65.00 6.00
50.00 70.00 5.00
50.00 75.00 6.00
50.00 80.00 6.00
50.00 85.00 7.00
50.00 90.00 7.00
50.00 95.00 8.00
50.00 100.00 8.00
50.00 105.00 9.00
50.00 110.00 10.00
50.00 115.00 12.00
50.00 120.00 13.00
50.00 125.00 11.00
50.00 130.00 14.00
50.00 135.00 17.00
50.00 140.00 19.00
50.00 145.00 20.00
50.00 150.00 24.00
50.00 155.00 24.00
50.00 160.00 27.00
50.00 165.00 28.00
50.00 170.00 29.00
50.00 175.00 31.00
50.00 180.00 31.00
50.00 185.00 31.00
50.00 190.00 31.00
50.00 195.00 31.00
50.00 200.00 33.00
55.00 200.00 32.00
55.00 195.00 33.00
55.00 190.00 32.00
55.00 185.00 34.00
55.00 180.00 37.00
55.00 175.00 41.00
55.00 170.00 41.00
55.00 165.00 40.00
55.00 160.00 41.00
55.00 155.00 41.00
55.00 150.00 41.00
55.00 145.00 40.00
55.00 140.00 41.00
55.00 135.00 40.00
55.00 130.00 40.00
55.00 125.00 40.00
55.00 120.00 41.00
55.00 115.00 40.00
55.00 110.00 40.00
55.00 105.00 40.00
55.00 100.00 39.00
55.00 95.00 40.00
55.00 90.00 40.00
55.00 85.00 39.00
55.00 80.00 39.00
55.00 75.00 39.00
55.00 70.00 39.00
55.00 65.00 38.00
55.00 60.00 38.00
55.00 55.00 39.00
55.00 50.00 38.00
55.00 45.00 39.00
55.00 40.00 38.00
55.00 35.00 36.00
55.00 30.00 36.00
55.00 25.00 36.00
55.00 20.00 34.00
55.00 15.00 36.00
55.00 10.00 33.00
55.00 5.00 34.00
55.00 0.00 33.00
60.00 0.00 33.00
60.00 5.00 34.00
60.00 10.00 36.00
60.00 15.00 36.00
60.00 20.00 36.00
60.00 25.00 37.00
60.00 30.00 36.00
60.00 35.00 37.00
60.00 40.00 39.00
60.00 45.00 38.00
60.00 50.00 38.00
60.00 55.00 39.00
60.00 60.00 40.00
60.00 65.00 39.00
60.00 70.00 40.00
60.00 75.00 40.00
60.00 80.00 41.00
60.00 85.00 41.00
60.00 90.00 41.00
60.00 95.00 41.00
60.00 100.00 41.00
60.00 105.00 41.00
60.00 110.00 39.00
60.00 115.00 40.00
60.00 120.00 41.00
60.00 125.00 40.00
60.00 130.00 41.00
60.00 135.00 40.00
60.00 140.00 42.00
60.00 145.00 41.00
60.00 150.00 41.00
60.00 155.00 41.00
60.00 160.00 41.00
60.00 165.00 40.00
60.00 170.00 42.00
60.00 175.00 41.00
60.00 180.00 40.00
60.00 185.00 42.00
60.00 190.00 42.00
60.00 195.00 43.00
60.00 200.00 41.00
65.00 200.00 42.00
65.00 195.00 44.00
65.00 190.00 43.00
65.00 185.00 43.00
65.00 180.00 43.00
65.00 175.00 44.00
65.00 170.00 45.00
65.00 165.00 44.00
65.00 160.00 44.00
65.00 155.00 43.00
65.00 150.00 44.00
65.00 145.00 43.00
65.00 140.00 42.00
65.00 135.00 44.00
65.00 130.00 44.00
65.00 125.00 43.00
65.00 120.00 43.00
65.00 115.00 42.00
65.00 110.00 42.00
65.00 105.00 42.00
65.00 100.00 41.00
65.00 95.00 42.00
65.00 90.00 41.00
65.00 85.00 42.00
65.00 80.00 41.00
65.00 75.00 40.00
65.00 70.00 40.00
65.00 65.00 41.00
65.00 60.00 40.00
65.00 55.00 39.00
65.00 50.00 40.00
65.00 45.00 40.00
65.00 40.00 39.00
65.00 35.00 40.00
65.00 30.00 40.00
65.00 25.00 39.00
65.00 20.00 39.00
65.00 15.00 38.00
65.00 10.00 38.00
65.00 5.00 38.00
65.00 0.00 36.00
70.00 0.00 36.00
70.00 5.00 37.00
70.00 10.00 37.00
70.00 15.00 38.00
70.00 20.00 38.00
70.00 25.00 39.00
70.00 30.00 40.00
70.00 35.00 39.00
70.00 40.00 39.00
70.00 45.00 39.00
70.00 50.00 39.00
70.00 55.00 41.00
70.00 60.00 40.00
70.00 65.00 40.00
70.00 70.00 41.00
70.00 75.00 40.00
70.00 80.00 42.00
70.00 85.00 42.00
70.00 90.00 41.00
70.00 95.00 43.00
70.00 100.00 42.00
70.00 105.00 43.00
70.00 110.00 42.00
70.00 115.00 44.00
70.00 120.00 42.00
70.00 125.00 43.00
70.00 130.00 42.00
70.00 135.00 45.00
70.00 140.00 44.00
70.00 145.00 44.00
70.00 150.00 43.00
70.00 155.00 44.00
70.00 160.00 44.00
70.00 165.00 44.00
70.00 170.00 44.00
70.00 175.00 45.00
70.00 180.00 44.00
70.00 185.00 44.00
70.00 190.00 45.00
70.00 195.00 44.00
70.00 200.00 45.00
75.00 200.00 44.00
75.00 195.00 45.00
75.00 190.00 45.00
75.00 185.00 45.00
75.00 180.00 44.00
75.00 175.00 45.00
75.00 170.00 45.00
75.00 165.00 44.00
75.00 160.00 45.00
75.00 155.00 45.00
75.00 150.00 44.00
75.00 145.00 45.00
75.00 140.00 45.00
75.00 135.00 45.00
75.00 130.00 43.00
75.00 125.00 44.00
75.00 120.00 44.00
75.00 115.00 44.00
75.00 110.00 43.00
75.00 105.00 44.00
75.00 100.00 42.00
75.00 95.00 43.00
75.00 90.00 43.00
75.00 85.00 43.00
75.00 80.00 42.00
75.00 75.00 42.00
75.00 70.00 42.00
75.00 65.00 42.00
75.00 60.00 42.00
75.00 55.00 41.00
75.00 50.00 42.00
75.00 45.00 41.00
75.00 40.00 43.00
75.00 35.00 41.00
75.00 30.00 40.00
75.00 25.00 40.00
75.00 20.00 41.00
75.00 15.00 39.00
75.00 10.00 40.00
75.00 5.00 39.00
75.00 0.00 39.00
80.00 0.00 39.00
80.00 5.00 39.00
80.00 10.00 40.00
80.00 15.00 38.00
80.00 20.00 39.00
80.00 25.00 40.00
80.00 30.00 39.00
80.00 35.00 40.00
80.00 40.00 41.00
80.00 45.00 41.00
80.00 50.00 41.00
80.00 55.00 42.00
80.00 60.00 41.00
80.00 65.00 42.00
80.00 70.00 43.00
80.00 75.00 43.00
80.00 80.00 41.00
80.00 85.00 42.00
80.00 90.00 43.00
80.00 95.00 43.00
80.00 100.00 43.00
80.00 105.00 43.00
80.00 110.00 44.00
80.00 115.00 44.00
80.00 120.00 43.00
80.00 125.00 43.00
80.00 130.00 45.00
80.00 135.00 45.00
80.00 140.00 44.00
80.00 145.00 45.00
80.00 150.00 45.00
80.00 155.00 45.00
80.00 160.00 46.00
80.00 165.00 45.00
80.00 170.00 44.00
80.00 175.00 45.00
80.00 180.00 44.00
80.00 185.00 46.00
80.00 190.00 45.00
80.00 195.00 44.00
80.00 200.00 45.00
85.00 200.00 45.00
85.00 195.00 45.00
85.00 190.00 45.00
85.00 185.00 43.00
85.00 180.00 43.00
85.00 175.00 43.00
85.00 170.00 44.00
85.00 165.00 44.00
85.00 160.00 46.00
85.00 155.00 45.00
85.00 150.00 47.00
85.00 145.00 46.00
85.00 140.00 47.00
85.00 135.00 45.00
85.00 130.00 44.00
85.00 125.00 46.00
85.00 120.00 46.00
85.00 115.00 44.00
85.00 110.00 45.00
85.00 105.00 44.00
85.00 100.00 44.00
85.00 95.00 44.00
85.00 90.00 43.00
85.00 85.00 44.00
85.00 80.00 44.00
85.00 75.00 43.00
85.00 70.00 43.00
85.00 65.00 44.00
85.00 60.00 42.00
85.00 55.00 44.00
85.00 50.00 43.00
85.00 45.00 42.00
85.00 40.00 42.00
85.00 35.00 42.00
85.00 30.00 41.00
85.00 25.00 42.00
85.00 20.00 42.00
85.00 15.00 42.00
85.00 10.00 40.00
85.00 5.00 39.00
85.00 0.00 39.00
90.00 0.00 38.00
90.00 5.00 40.00
90.00 10.00 40.00
90.00 15.00 40.00
90.00 20.00 40.00
90.00 25.00 40.00
90.00 30.00 41.00
90.00 35.00 42.00
90.00 40.00 40.00
90.00 45.00 40.00
90.00 50.00 42.00
90.00 55.00 43.00
90.00 60.00 43.00
90.00 65.00 43.00
90.00 70.00 44.00
90.00 75.00 42.00
90.00 80.00 43.00
90.00 85.00 44.00
90.00 90.00 44.00
90.00 95.00 45.00
90.00 100.00 43.00
90.00 105.00 42.00
90.00 110.00 44.00
90.00 115.00 44.00
90.00 120.00 44.00
90.00 125.00 46.00
90.00 130.00 45.00
90.00 135.00 45.00
90.00 140.00 45.00
90.00 145.00 44.00
90.00 150.00 44.00
90.00 155.00 43.00
90.00 160.00 44.00
90.00 165.00 43.00
90.00 170.00 43.00
90.00 175.00 43.00
90.00 180.00 43.00
90.00 185.00 42.00
90.00 190.00 42.00
90.00 195.00 43.00
90.00 200.00 44.00
95.00 200.00 46.00
95.00 195.00 47.00
95.00 190.00 46.00
95.00 185.00 46.00
95.00 180.00 47.00
95.00 175.00 46.00
95.00 170.00 44.00
95.00 165.00 42.00
95.00 160.00 42.00
95.00 155.00 42.00
95.00 150.00 44.00
95.00 145.00 43.00
95.00 140.00 42.00
95.00 135.00 44.00
95.00 130.00 42.00
95.00 125.00 44.00
95.00 120.00 43.00
95.00 115.00 46.00
95.00 110.00 45.00
95.00 105.00 45.00
95.00 100.00 45.00
95.00 95.00 46.00
95.00 90.00 44.00
95.00 85.00 44.00
95.00 80.00 44.00
95.00 75.00 44.00
95.00 70.00 45.00
95.00 65.00 43.00
95.00 60.00 44.00
95.00 55.00 44.00
95.00 50.00 42.00
95.00 45.00 43.00
95.00 40.00 42.00
95.00 35.00 44.00
95.00 30.00 42.00
95.00 25.00 42.00
95.00 20.00 43.00
95.00 15.00 42.00
95.00 10.00 41.00
95.00 5.00 41.00
95.00 0.00 40.00
100.00 0.00 39.00
100.00 5.00 40.00
100.00 10.00 40.00
100.00 15.00 41.00
100.00 20.00 42.00
100.00 25.00 41.00
100.00 30.00 43.00
100.00 35.00 42.00
100.00 40.00 41.00
100.00 45.00 41.00
100.00 50.00 42.00
100.00 55.00 43.00
100.00 60.00 42.00
100.00 65.00 43.00
100.00 70.00 42.00
100.00 75.00 43.00
100.00 80.00 45.00
100.00 85.00 44.00
100.00 90.00 44.00
100.00 95.00 43.00
100.00 100.00 43.00
100.00 105.00 42.00
100.00 110.00 43.00
100.00 115.00 42.00
100.00 120.00 42.00
100.00 125.00 42.00
100.00 130.00 42.00
100.00 135.00 42.00
100.00 140.00 42.00
100.00 145.00 42.00
100.00 150.00 45.00
100.00 155.00 45.00
100.00 160.00 45.00
100.00 165.00 46.00
100.00 170.00 47.00
100.00 175.00 46.00
100.00 180.00 47.00
100.00 185.00 47.00
100.00 190.00 45.00
100.00 195.00 46.00
100.00 200.00 45.00
105.00 200.00 47.00
105.00 195.00 48.00
105.00 190.00 45.00
105.00 185.00 46.00
105.00 180.00 47.00
105.00 175.00 47.00
105.00 170.00 46.00
105.00 165.00 46.00
105.00 160.00 47.00
105.00 155.00 47.00
105.00 150.00 46.00
105.00 145.00 46.00
105.00 140.00 44.00
105.00 135.00 43.00
105.00 130.00 44.00
105.00 125.00 43.00
105.00 120.00 42.00
105.00 115.00 41.00
105.00 110.00 43.00
105.00 105.00 42.00
105.00 100.00 43.00
105.00 95.00 45.00
105.00 90.00 44.00
105.00 85.00 46.00
105.00 80.00 44.00
105.00 75.00 45.00
105.00 70.00 43.00
105.00 65.00 45.00
105.00 60.00 43.00
105.00 55.00 45.00
105.00 50.00 44.00
105.00 45.00 42.00
105.00 40.00 43.00
105.00 35.00 43.00
105.00 30.00 41.00
105.00 25.00 42.00
105.00 20.00 42.00
105.00 15.00 42.00
105.00 10.00 41.00
105.00 5.00 41.00
105.00 0.00 40.00
110.00 0.00 40.00
110.00 5.00 41.00
110.00 10.00 40.00
110.00 15.00 40.00
110.00 20.00 42.00
110.00 25.00 42.00
110.00 30.00 41.00
110.00 35.00 41.00
110.00 40.00 40.00
110.00 45.00 39.00
110.00 50.00 41.00
110.00 55.00 41.00
110.00 60.00 42.00
110.00 65.00 42.00
110.00 70.00 42.00
110.00 75.00 41.00
110.00 80.00 42.00
110.00 85.00 41.00
110.00 90.00 41.00
110.00 95.00 41.00
110.00 100.00 42.00
110.00 105.00 43.00
110.00 110.00 45.00
110.00 115.00 42.00
110.00 120.00 45.00
110.00 125.00 47.00
110.00 130.00 45.00
110.00 135.00 47.00
110.00 140.00 45.00
110.00 145.00 46.00
110.00 150.00 47.00
110.00 155.00 46.00
110.00 160.00 46.00
110.00 165.00 47.00
110.00 170.00 46.00
110.00 175.00 46.00
110.00 180.00 46.00
110.00 185.00 45.00
110.00 190.00 46.00
110.00 195.00 46.00
110.00 200.00 45.00
115.00 200.00 46.00
115.00 195.00 48.00
115.00 190.00 46.00
115.00 185.00 47.00
115.00 180.00 45.00
115.00 175.00 46.00
115.00 170.00 46.00
115.00 165.00 44.00
115.00 160.00 45.00
115.00 155.00 47.00
115.00 150.00 45.00
115.00 145.00 46.00
115.00 140.00 46.00
115.00 135.00 46.00
115.00 130.00 47.00
115.00 125.00 46.00
115.00 120.00 47.00
115.00 115.00 45.00
115.00 110.00 46.00
115.00 105.00 46.00
115.00 100.00 45.00
115.00 95.00 46.00
115.00 90.00 44.00
115.00 85.00 43.00
115.00 80.00 42.00
115.00 75.00 42.00
115.00 70.00 42.00
115.00 65.00 42.00
115.00 60.00 41.00
115.00 55.00 41.00
115.00 50.00 41.00
115.00 45.00 41.00
115.00 40.00 41.00
115.00 35.00 40.00
115.00 30.00 40.00
115.00 25.00 40.00
115.00 20.00 41.00
115.00 15.00 42.00
115.00 10.00 43.00
115.00 5.00 40.00
115.00 0.00 40.00
120.00 0.00 40.00
120.00 5.00 40.00
120.00 10.00 40.00
120.00 15.00 39.00
120.00 20.00 40.00
120.00 25.00 39.00
120.00 30.00 39.00
120.00 35.00 40.00
120.00 40.00 39.00
120.00 45.00 39.00
120.00 50.00 39.00
120.00 55.00 40.00
120.00 60.00 41.00
120.00 65.00 41.00
120.00 70.00 41.00
120.00 75.00 41.00
