10.00 60.00 2.00
10.00 40.00 4.00
10.00 30.00 2.00
30.00 40.00 4.00
30.00 30.00 4.00
40.00 70.00 2.00
40.00 80.00 2.00
40.00 90.00 2.00
40.00 100.00 2.00
40.00 180.00 13.00
40.00 190.00 14.00
40.00 200.00 18.00
40.00 210.00 15.00
40.00 220.00 19.00
40.00 230.00 17.00
40.00 240.00 16.00
40.00 250.00 17.00
40.00 260.00 18.00
40.00 270.00 16.00
40.00 280.00 19.00
40.00 290.00 17.00
40.00 300.00 18.00
40.00 310.00 19.00
40.00 320.00 19.00
40.00 330.00 18.00
40.00 340.00 19.00
40.00 350.00 18.00
40.00 360.00 18.00
40.00 370.00 19.00
40.00 380.00 18.00
40.00 390.00 21.00
40.00 400.00 22.00
40.00 410.00 19.00
40.00 420.00 19.00
40.00 430.00 21.00
40.00 440.00 21.00
40.00 450.00 19.00
40.00 460.00 18.00
40.00 470.00 19.00
40.00 480.00 18.00
40.00 490.00 15.00
40.00 500.00 14.00
50.00 500.00 13.00
50.00 490.00 21.00
50.00 480.00 19.00
50.00 470.00 21.00
50.00 460.00 21.00
50.00 450.00 21.00
50.00 440.00 22.00
50.00 430.00 21.00
50.00 420.00 23.00
50.00 410.00 22.00
50.00 400.00 23.00
50.00 390.00 23.00
50.00 380.00 23.00
50.00 370.00 23.00
50.00 360.00 23.00
50.00 350.00 24.00
50.00 340.00 24.00
50.00 330.00 22.00
50.00 320.00 22.00
50.00 310.00 23.00
50.00 300.00 22.00
50.00 290.00 23.00
50.00 280.00 21.00
50.00 270.00 22.00
50.00 260.00 23.00
50.00 250.00 22.00
50.00 240.00 22.00
50.00 230.00 23.00
50.00 220.00 24.00
50.00 210.00 26.00
50.00 200.00 28.00
50.00 190.00 24.00
50.00 180.00 25.00
50.00 170.00 9.00
50.00 90.00 2.00
50.00 50.00 4.00
50.00 40.00 4.00
50.00 30.00 2.00
50.00 20.00 4.00
60.00 40.00 4.00
60.00 60.00 2.00
60.00 70.00 2.00
60.00 90.00 4.00
60.00 170.00 7.00
60.00 180.00 19.00
60.00 190.00 24.00
60.00 200.00 25.00
60.00 210.00 27.00
60.00 220.00 30.00
60.00 230.00 25.00
60.00 240.00 22.00
60.00 250.00 22.00
60.00 260.00 22.00
60.00 270.00 23.00
60.00 280.00 22.00
60.00 290.00 21.00
60.00 300.00 23.00
60.00 310.00 24.00
60.00 320.00 22.00
60.00 330.00 22.00
60.00 340.00 24.00
60.00 350.00 22.00
60.00 360.00 22.00
60.00 370.00 24.00
60.00 380.00 22.00
60.00 390.00 23.00
60.00 400.00 23.00
60.00 410.00 24.00
60.00 420.00 22.00
60.00 430.00 22.00
60.00 440.00 22.00
60.00 450.00 22.00
60.00 460.00 22.00
60.00 470.00 22.00
60.00 480.00 21.00
60.00 490.00 19.00
60.00 500.00 18.00
70.00 500.00 19.00
70.00 490.00 18.00
70.00 480.00 21.00
70.00 470.00 21.00
70.00 460.00 19.00
70.00 450.00 22.00
70.00 440.00 23.00
70.00 430.00 22.00
70.00 420.00 23.00
70.00 410.00 22.00
70.00 400.00 23.00
70.00 390.00 23.00
70.00 380.00 22.00
70.00 370.00 22.00
70.00 360.00 22.00
70.00 350.00 23.00
70.00 340.00 22.00
70.00 330.00 23.00
70.00 320.00 23.00
70.00 310.00 22.00
70.00 300.00 23.00
70.00 290.00 24.00
70.00 280.00 22.00
70.00 270.00 23.00
70.00 260.00 23.00
70.00 250.00 22.00
70.00 240.00 24.00
70.00 230.00 24.00
70.00 220.00 26.00
70.00 210.00 33.00
70.00 200.00 26.00
70.00 190.00 24.00
70.00 180.00 21.00
70.00 170.00 8.00
70.00 90.00 2.00
70.00 60.00 2.00
70.00 50.00 4.00
70.00 40.00 4.00
70.00 30.00 2.00
80.00 40.00 2.00
80.00 50.00 2.00
80.00 60.00 4.00
80.00 70.00 2.00
80.00 80.00 2.00
80.00 90.00 4.00
80.00 100.00 4.00
80.00 110.00 2.00
80.00 120.00 2.00
80.00 170.00 9.00
80.00 180.00 18.00
80.00 190.00 28.00
80.00 200.00 25.00
80.00 210.00 25.00
80.00 220.00 24.00
80.00 230.00 25.00
80.00 240.00 26.00
80.00 250.00 24.00
80.00 260.00 22.00
80.00 270.00 19.00
80.00 280.00 21.00
80.00 290.00 21.00
80.00 300.00 22.00
80.00 310.00 22.00
80.00 320.00 22.00
80.00 330.00 23.00
80.00 340.00 23.00
80.00 350.00 23.00
80.00 360.00 24.00
80.00 370.00 23.00
80.00 380.00 22.00
80.00 390.00 23.00
80.00 400.00 22.00
80.00 410.00 21.00
80.00 420.00 22.00
80.00 430.00 22.00
80.00 440.00 21.00
80.00 450.00 23.00
80.00 460.00 23.00
80.00 470.00 18.00
80.00 480.00 18.00
80.00 490.00 19.00
80.00 500.00 18.00
90.00 500.00 17.00
90.00 490.00 18.00
90.00 480.00 19.00
90.00 470.00 18.00
90.00 460.00 19.00
90.00 450.00 22.00
90.00 440.00 24.00
90.00 430.00 22.00
90.00 420.00 23.00
90.00 410.00 23.00
90.00 400.00 23.00
90.00 390.00 22.00
90.00 380.00 23.00
90.00 370.00 22.00
90.00 360.00 23.00
90.00 350.00 22.00
90.00 340.00 24.00
90.00 330.00 23.00
90.00 320.00 24.00
90.00 310.00 22.00
90.00 300.00 23.00
90.00 290.00 23.00
90.00 280.00 23.00
90.00 270.00 21.00
90.00 260.00 27.00
90.00 250.00 29.00
90.00 240.00 31.00
90.00 230.00 29.00
90.00 220.00 26.00
90.00 210.00 25.00
90.00 200.00 27.00
90.00 190.00 25.00
90.00 180.00 26.00
90.00 170.00 16.00
90.00 90.00 2.00
90.00 70.00 2.00
90.00 60.00 2.00
90.00 50.00 5.00
90.00 40.00 4.00
90.00 30.00 4.00
90.00 20.00 2.00
100.00 50.00 2.00
100.00 60.00 2.00
100.00 70.00 2.00
100.00 80.00 2.00
100.00 90.00 2.00
100.00 110.00 3.00
100.00 120.00 3.00
100.00 160.00 3.00
100.00 170.00 17.00
100.00 180.00 27.00
100.00 190.00 25.00
100.00 200.00 25.00
100.00 210.00 25.00
100.00 220.00 31.00
100.00 230.00 24.00
100.00 240.00 23.00
100.00 250.00 23.00
100.00 260.00 21.00
100.00 270.00 22.00
100.00 280.00 22.00
100.00 290.00 22.00
100.00 300.00 22.00
100.00 310.00 22.00
100.00 320.00 22.00
100.00 330.00 22.00
100.00 340.00 23.00
100.00 350.00 22.00
100.00 360.00 22.00
100.00 370.00 23.00
100.00 380.00 23.00
100.00 390.00 22.00
100.00 400.00 22.00
100.00 410.00 22.00
100.00 420.00 22.00
100.00 430.00 22.00
100.00 440.00 23.00
100.00 450.00 21.00
100.00 460.00 22.00
100.00 470.00 21.00
100.00 480.00 21.00
100.00 490.00 21.00
100.00 500.00 19.00
110.00 500.00 17.00
110.00 490.00 19.00
110.00 480.00 19.00
110.00 470.00 18.00
110.00 460.00 21.00
110.00 450.00 21.00
110.00 440.00 22.00
110.00 430.00 23.00
110.00 420.00 23.00
110.00 410.00 23.00
110.00 400.00 24.00
110.00 390.00 23.00
110.00 380.00 23.00
110.00 370.00 22.00
110.00 360.00 23.00
110.00 350.00 23.00
110.00 340.00 23.00
110.00 330.00 23.00
110.00 320.00 24.00
110.00 310.00 23.00
110.00 300.00 22.00
110.00 290.00 24.00
110.00 280.00 23.00
110.00 270.00 23.00
110.00 260.00 23.00
110.00 250.00 23.00
110.00 240.00 25.00
110.00 230.00 23.00
110.00 220.00 25.00
110.00 210.00 31.00
110.00 200.00 28.00
110.00 190.00 24.00
110.00 180.00 27.00
110.00 170.00 26.00
110.00 160.00 18.00
110.00 90.00 2.00
110.00 70.00 4.00
110.00 50.00 5.00
110.00 40.00 4.00
110.00 30.00 5.00
110.00 20.00 2.00
110.00 10.00 2.00
120.00 40.00 2.00
120.00 50.00 4.00
120.00 60.00 2.00
120.00 70.00 4.00
120.00 80.00 2.00
120.00 90.00 2.00
120.00 100.00 4.00
120.00 110.00 2.00
120.00 120.00 2.00
120.00 130.00 2.00
120.00 140.00 2.00
120.00 150.00 2.00
120.00 160.00 19.00
120.00 170.00 27.00
120.00 180.00 25.00
120.00 190.00 26.00
120.00 200.00 26.00
120.00 210.00 24.00
120.00 220.00 22.00
120.00 230.00 22.00
120.00 240.00 24.00
120.00 250.00 23.00
120.00 260.00 19.00
120.00 270.00 22.00
120.00 280.00 24.00
120.00 290.00 23.00
120.00 300.00 22.00
120.00 310.00 23.00
120.00 320.00 23.00
120.00 330.00 23.00
120.00 340.00 24.00
120.00 350.00 24.00
120.00 360.00 24.00
120.00 370.00 23.00
120.00 380.00 22.00
120.00 390.00 23.00
120.00 400.00 23.00
120.00 410.00 23.00
120.00 420.00 23.00
120.00 430.00 22.00
120.00 440.00 23.00
120.00 450.00 19.00
120.00 460.00 21.00
120.00 470.00 18.00
120.00 480.00 21.00
120.00 490.00 18.00
120.00 500.00 15.00
130.00 500.00 15.00
130.00 490.00 6.00
130.00 480.00 8.00
130.00 470.00 10.00
130.00 460.00 12.00
130.00 450.00 19.00
130.00 440.00 21.00
130.00 430.00 21.00
130.00 420.00 21.00
130.00 410.00 22.00
130.00 400.00 21.00
130.00 390.00 23.00
130.00 380.00 22.00
130.00 370.00 22.00
130.00 360.00 21.00
130.00 350.00 21.00
130.00 340.00 22.00
130.00 330.00 19.00
130.00 320.00 19.00
130.00 310.00 21.00
130.00 300.00 19.00
130.00 290.00 22.00
130.00 280.00 19.00
130.00 270.00 18.00
130.00 260.00 19.00
130.00 250.00 19.00
130.00 240.00 19.00
130.00 230.00 19.00
130.00 220.00 17.00
130.00 210.00 17.00
130.00 200.00 17.00
130.00 190.00 18.00
130.00 180.00 16.00
130.00 170.00 14.00
130.00 160.00 12.00
130.00 90.00 2.00
130.00 70.00 2.00
130.00 60.00 2.00
130.00 50.00 4.00
130.00 40.00 5.00
130.00 30.00 4.00
130.00 20.00 2.00
140.00 30.00 2.00
140.00 40.00 4.00
140.00 50.00 4.00
140.00 60.00 2.00
140.00 70.00 2.00
140.00 80.00 4.00
140.00 100.00 4.00
140.00 110.00 4.00
140.00 140.00 2.00
140.00 440.00 2.00
140.00 460.00 5.00
140.00 470.00 6.00
140.00 480.00 6.00
150.00 90.00 2.00
150.00 80.00 2.00
150.00 70.00 2.00
150.00 60.00 4.00
150.00 50.00 2.00
150.00 40.00 4.00
150.00 30.00 4.00
160.00 40.00 2.00
160.00 50.00 4.00
160.00 60.00 2.00
160.00 70.00 2.00
160.00 80.00 2.00
160.00 90.00 4.00
160.00 100.00 4.00
160.00 120.00 2.00
170.00 80.00 2.00
170.00 70.00 2.00
170.00 60.00 5.00
170.00 50.00 5.00
170.00 40.00 4.00
170.00 30.00 2.00
170.00 20.00 2.00
180.00 40.00 2.00
180.00 50.00 2.00
180.00 60.00 2.00
180.00 70.00 2.00
180.00 80.00 5.00
180.00 90.00 4.00
180.00 100.00 4.00
180.00 110.00 4.00
180.00 120.00 2.00
180.00 140.00 2.00
190.00 80.00 2.00
190.00 70.00 2.00
190.00 60.00 4.00
190.00 50.00 4.00
190.00 40.00 2.00
190.00 30.00 4.00
200.00 70.00 4.00
200.00 80.00 4.00
200.00 100.00 4.00
200.00 110.00 2.00
200.00 120.00 2.00
200.00 140.00 2.00
200.00 150.00 2.00
210.00 90.00 2.00
210.00 80.00 4.00
210.00 70.00 2.00
210.00 60.00 4.00
210.00 50.00 4.00
210.00 40.00 4.00
210.00 30.00 2.00
220.00 40.00 2.00
220.00 60.00 2.00
220.00 70.00 2.00
220.00 80.00 4.00
220.00 120.00 2.00
230.00 80.00 2.00
230.00 70.00 2.00
230.00 60.00 5.00
230.00 50.00 4.00
230.00 40.00 5.00
230.00 30.00 4.00
230.00 20.00 2.00
240.00 40.00 2.00
240.00 60.00 2.00
240.00 70.00 4.00
240.00 80.00 5.00
240.00 90.00 4.00
240.00 100.00 2.00
240.00 110.00 4.00
240.00 130.00 2.00
240.00 140.00 2.00
250.00 90.00 2.00
250.00 70.00 4.00
250.00 60.00 2.00
250.00 50.00 5.00
250.00 40.00 4.00
250.00 30.00 4.00
250.00 20.00 2.00
260.00 40.00 2.00
260.00 50.00 2.00
260.00 70.00 4.00
260.00 80.00 2.00
260.00 100.00 4.00
260.00 110.00 2.00
260.00 130.00 2.00
260.00 140.00 2.00
270.00 110.00 2.00
270.00 100.00 2.00
270.00 90.00 2.00
270.00 80.00 2.00
270.00 70.00 2.00
270.00 60.00 2.00
270.00 50.00 4.00
270.00 40.00 4.00
270.00 30.00 4.00
280.00 0.00 34.00
280.00 10.00 35.00
280.00 20.00 39.00
280.00 30.00 36.00
280.00 40.00 40.00
280.00 50.00 38.00
280.00 60.00 39.00
280.00 70.00 39.00
280.00 80.00 39.00
280.00 90.00 39.00
280.00 100.00 36.00
280.00 110.00 38.00
280.00 120.00 35.00
280.00 130.00 34.00
280.00 140.00 35.00
280.00 150.00 34.00
280.00 160.00 33.00
280.00 170.00 32.00
280.00 180.00 31.00
280.00 190.00 32.00
280.00 200.00 31.00
280.00 210.00 32.00
280.00 220.00 30.00
280.00 230.00 28.00
280.00 240.00 26.00
280.00 250.00 28.00
280.00 260.00 27.00
280.00 270.00 11.00
280.00 280.00 10.00
280.00 290.00 7.00
290.00 270.00 4.00
290.00 260.00 7.00
290.00 250.00 12.00
290.00 240.00 23.00
290.00 230.00 27.00
290.00 220.00 26.00
290.00 210.00 27.00
290.00 200.00 30.00
290.00 190.00 30.00
290.00 180.00 30.00
290.00 170.00 32.00
290.00 160.00 33.00
290.00 150.00 32.00
290.00 140.00 33.00
290.00 130.00 33.00
290.00 120.00 34.00
290.00 110.00 34.00
290.00 100.00 35.00
290.00 90.00 34.00
290.00 80.00 36.00
290.00 70.00 35.00
290.00 60.00 40.00
290.00 50.00 38.00
290.00 40.00 39.00
290.00 30.00 40.00
290.00 20.00 38.00
290.00 10.00 35.00
290.00 0.00 35.00
300.00 0.00 33.00
300.00 10.00 34.00
300.00 20.00 35.00
300.00 30.00 34.00
300.00 40.00 35.00
300.00 50.00 35.00
300.00 60.00 34.00
300.00 70.00 34.00
300.00 80.00 34.00
300.00 90.00 34.00
300.00 100.00 34.00
300.00 110.00 33.00
300.00 120.00 33.00
300.00 130.00 33.00
300.00 140.00 33.00
300.00 150.00 30.00
300.00 160.00 31.00
300.00 170.00 31.00
300.00 180.00 30.00
300.00 190.00 28.00
300.00 200.00 26.00
300.00 210.00 26.00
300.00 220.00 26.00
300.00 230.00 25.00
300.00 240.00 24.00
300.00 250.00 12.00
300.00 260.00 7.00
300.00 270.00 6.00
300.00 280.00 2.00
310.00 270.00 4.00
310.00 260.00 8.00
310.00 250.00 11.00
310.00 240.00 12.00
310.00 230.00 25.00
310.00 220.00 28.00
310.00 210.00 27.00
310.00 200.00 27.00
310.00 190.00 29.00
310.00 180.00 29.00
310.00 170.00 30.00
310.00 160.00 33.00
310.00 150.00 32.00
310.00 140.00 34.00
310.00 130.00 34.00
310.00 120.00 35.00
310.00 100.00 2.00
310.00 90.00 2.00
310.00 70.00 4.00
310.00 60.00 4.00
310.00 50.00 5.00
310.00 40.00 4.00
310.00 30.00 2.00
320.00 50.00 2.00
320.00 70.00 4.00
320.00 80.00 2.00
320.00 90.00 4.00
320.00 100.00 2.00
320.00 110.00 2.00
320.00 120.00 4.00
