0.00 90.00 3.00
0.00 100.00 4.00
0.00 110.00 9.00
0.00 120.00 7.00
0.00 130.00 9.00
0.00 140.00 10.00
0.00 150.00 10.00
0.00 160.00 11.00
0.00 170.00 11.00
0.00 180.00 11.00
0.00 190.00 14.00
0.00 200.00 13.00
0.00 210.00 13.00
0.00 220.00 13.00
0.00 230.00 13.00
0.00 240.00 13.00
0.00 250.00 13.00
0.00 260.00 13.00
0.00 270.00 13.00
0.00 280.00 14.00
0.00 290.00 14.00
0.00 300.00 14.00
0.00 310.00 14.00
0.00 320.00 13.00
0.00 330.00 9.00
0.00 340.00 5.00
0.00 350.00 5.00
0.00 360.00 6.00
0.00 370.00 4.00
0.00 380.00 2.00
0.00 390.00 2.00
10.00 460.00 3.00
10.00 450.00 6.00
10.00 440.00 6.00
10.00 430.00 5.00
10.00 420.00 8.00
10.00 410.00 8.00
10.00 400.00 10.00
10.00 390.00 13.00
10.00 380.00 15.00
10.00 370.00 15.00
10.00 360.00 16.00
10.00 350.00 19.00
10.00 340.00 21.00
10.00 330.00 21.00
10.00 320.00 22.00
10.00 310.00 22.00
10.00 300.00 22.00
10.00 290.00 22.00
10.00 280.00 23.00
10.00 270.00 23.00
10.00 260.00 22.00
10.00 250.00 22.00
10.00 240.00 22.00
10.00 230.00 22.00
10.00 220.00 21.00
10.00 210.00 21.00
10.00 200.00 21.00
10.00 190.00 21.00
10.00 180.00 21.00
10.00 170.00 22.00
10.00 160.00 21.00
10.00 150.00 21.00
10.00 140.00 20.00
10.00 130.00 20.00
10.00 120.00 18.00
10.00 110.00 16.00
10.00 100.00 14.00
10.00 90.00 13.00
10.00 80.00 11.00
10.00 70.00 10.00
10.00 60.00 7.00
10.00 50.00 2.00
20.00 30.00 9.00
20.00 40.00 11.00
20.00 50.00 16.00
20.00 60.00 19.00
20.00 70.00 20.00
20.00 80.00 22.00
20.00 90.00 24.00
20.00 100.00 25.00
20.00 110.00 26.00
20.00 120.00 26.00
20.00 130.00 28.00
20.00 140.00 28.00
20.00 150.00 27.00
20.00 160.00 27.00
20.00 170.00 28.00
20.00 180.00 30.00
20.00 190.00 30.00
20.00 200.00 30.00
20.00 210.00 30.00
20.00 220.00 30.00
20.00 230.00 30.00
20.00 240.00 28.00
20.00 250.00 27.00
20.00 260.00 31.00
20.00 270.00 30.00
20.00 280.00 32.00
20.00 290.00 30.00
20.00 300.00 30.00
20.00 310.00 31.00
20.00 320.00 31.00
20.00 330.00 27.00
20.00 340.00 26.00
20.00 350.00 23.00
20.00 360.00 19.00
20.00 370.00 18.00
20.00 380.00 16.00
20.00 390.00 13.00
20.00 400.00 9.00
20.00 410.00 9.00
20.00 420.00 7.00
20.00 430.00 5.00
20.00 440.00 2.00
20.00 450.00 2.00
30.00 470.00 5.00
30.00 460.00 6.00
30.00 450.00 7.00
30.00 440.00 10.00
30.00 430.00 9.00
30.00 420.00 13.00
30.00 410.00 15.00
30.00 400.00 15.00
30.00 390.00 18.00
30.00 380.00 20.00
30.00 370.00 22.00
30.00 360.00 24.00
30.00 350.00 27.00
30.00 340.00 30.00
30.00 330.00 32.00
30.00 320.00 32.00
30.00 310.00 33.00
30.00 300.00 32.00
30.00 290.00 32.00
30.00 280.00 32.00
30.00 270.00 33.00
30.00 260.00 32.00
30.00 250.00 32.00
30.00 240.00 32.00
30.00 230.00 32.00
30.00 220.00 32.00
30.00 210.00 32.00
30.00 200.00 32.00
30.00 190.00 32.00
30.00 180.00 32.00
30.00 170.00 32.00
30.00 160.00 32.00
30.00 150.00 31.00
30.00 140.00 31.00
30.00 130.00 31.00
30.00 120.00 30.00
30.00 110.00 27.00
30.00 100.00 25.00
30.00 90.00 23.00
30.00 80.00 20.00
30.00 70.00 18.00
30.00 60.00 16.00
30.00 50.00 13.00
30.00 40.00 11.00
40.00 40.00 5.00
40.00 50.00 14.00
40.00 60.00 17.00
40.00 70.00 19.00
40.00 80.00 22.00
40.00 90.00 24.00
40.00 100.00 25.00
40.00 110.00 27.00
40.00 120.00 26.00
40.00 130.00 28.00
40.00 140.00 27.00
40.00 150.00 28.00
40.00 160.00 28.00
40.00 170.00 27.00
40.00 180.00 30.00
40.00 190.00 27.00
40.00 200.00 28.00
40.00 210.00 31.00
40.00 220.00 27.00
40.00 230.00 28.00
40.00 240.00 31.00
40.00 250.00 28.00
40.00 260.00 30.00
40.00 270.00 31.00
40.00 280.00 30.00
40.00 290.00 31.00
40.00 300.00 32.00
40.00 310.00 32.00
40.00 320.00 30.00
40.00 330.00 30.00
40.00 340.00 27.00
40.00 350.00 23.00
40.00 360.00 21.00
40.00 370.00 19.00
40.00 380.00 16.00
40.00 390.00 16.00
40.00 400.00 13.00
40.00 410.00 8.00
40.00 420.00 7.00
40.00 430.00 4.00
40.00 440.00 4.00
40.00 450.00 2.00
40.00 460.00 2.00
50.00 490.00 2.00
50.00 480.00 4.00
50.00 470.00 5.00
50.00 460.00 7.00
50.00 450.00 8.00
50.00 440.00 10.00
50.00 430.00 10.00
50.00 420.00 13.00
50.00 410.00 14.00
50.00 400.00 16.00
50.00 390.00 18.00
50.00 380.00 20.00
50.00 370.00 21.00
50.00 360.00 25.00
50.00 350.00 28.00
50.00 340.00 28.00
50.00 330.00 32.00
50.00 320.00 32.00
50.00 310.00 33.00
50.00 300.00 33.00
50.00 290.00 31.00
50.00 280.00 33.00
50.00 270.00 33.00
50.00 260.00 33.00
50.00 250.00 32.00
50.00 240.00 33.00
50.00 230.00 32.00
50.00 220.00 32.00
50.00 210.00 32.00
50.00 200.00 32.00
50.00 190.00 33.00
50.00 180.00 31.00
50.00 170.00 32.00
50.00 160.00 31.00
50.00 150.00 32.00
50.00 140.00 31.00
50.00 130.00 30.00
50.00 120.00 28.00
50.00 110.00 26.00
50.00 100.00 26.00
50.00 90.00 23.00
50.00 80.00 20.00
50.00 70.00 19.00
50.00 60.00 16.00
50.00 50.00 14.00
50.00 40.00 13.00
50.00 30.00 3.00
50.00 20.00 2.00
60.00 40.00 3.00
60.00 50.00 15.00
60.00 60.00 16.00
60.00 70.00 21.00
60.00 80.00 22.00
60.00 90.00 25.00
60.00 100.00 27.00
60.00 110.00 28.00
60.00 120.00 28.00
60.00 130.00 27.00
60.00 140.00 30.00
60.00 150.00 28.00
60.00 160.00 28.00
60.00 170.00 28.00
60.00 180.00 30.00
60.00 190.00 31.00
60.00 200.00 31.00
60.00 210.00 30.00
60.00 220.00 28.00
60.00 230.00 27.00
60.00 240.00 28.00
60.00 250.00 28.00
60.00 260.00 31.00
60.00 270.00 30.00
60.00 280.00 32.00
60.00 290.00 31.00
60.00 300.00 32.00
60.00 310.00 32.00
60.00 320.00 32.00
60.00 330.00 30.00
60.00 340.00 26.00
60.00 350.00 24.00
60.00 360.00 21.00
60.00 370.00 18.00
60.00 380.00 18.00
60.00 390.00 15.00
60.00 400.00 11.00
60.00 410.00 10.00
60.00 420.00 8.00
60.00 430.00 7.00
60.00 440.00 5.00
60.00 450.00 2.00
60.00 460.00 3.00
70.00 490.00 2.00
70.00 480.00 5.00
70.00 470.00 6.00
70.00 460.00 6.00
70.00 450.00 8.00
70.00 440.00 11.00
70.00 430.00 9.00
70.00 420.00 13.00
70.00 410.00 15.00
70.00 400.00 18.00
70.00 390.00 17.00
70.00 380.00 20.00
70.00 370.00 23.00
70.00 360.00 27.00
70.00 350.00 30.00
70.00 340.00 31.00
70.00 330.00 32.00
70.00 320.00 33.00
70.00 310.00 32.00
70.00 300.00 32.00
70.00 290.00 33.00
70.00 280.00 32.00
70.00 270.00 32.00
70.00 260.00 33.00
70.00 250.00 31.00
70.00 240.00 33.00
70.00 230.00 32.00
70.00 220.00 32.00
70.00 210.00 32.00
70.00 200.00 33.00
70.00 190.00 32.00
70.00 180.00 32.00
70.00 170.00 33.00
70.00 160.00 32.00
70.00 150.00 31.00
70.00 140.00 31.00
70.00 130.00 31.00
70.00 120.00 30.00
70.00 110.00 26.00
70.00 100.00 25.00
70.00 90.00 22.00
70.00 80.00 19.00
70.00 70.00 18.00
70.00 60.00 15.00
70.00 50.00 13.00
70.00 40.00 10.00
70.00 30.00 2.00
80.00 50.00 14.00
80.00 60.00 16.00
80.00 70.00 19.00
80.00 80.00 21.00
80.00 90.00 23.00
80.00 100.00 25.00
80.00 110.00 28.00
80.00 120.00 27.00
80.00 130.00 28.00
80.00 140.00 27.00
80.00 150.00 28.00
80.00 160.00 27.00
80.00 170.00 28.00
80.00 180.00 31.00
80.00 190.00 31.00
80.00 200.00 28.00
80.00 210.00 30.00
80.00 220.00 30.00
80.00 230.00 31.00
80.00 240.00 31.00
80.00 250.00 30.00
80.00 260.00 30.00
80.00 270.00 31.00
80.00 280.00 31.00
80.00 290.00 32.00
80.00 300.00 32.00
80.00 310.00 31.00
80.00 320.00 32.00
80.00 330.00 31.00
80.00 340.00 28.00
80.00 350.00 26.00
80.00 360.00 23.00
80.00 370.00 19.00
80.00 380.00 18.00
80.00 390.00 15.00
80.00 400.00 15.00
80.00 410.00 11.00
80.00 420.00 8.00
80.00 430.00 6.00
80.00 440.00 6.00
80.00 450.00 3.00
80.00 460.00 3.00
90.00 460.00 2.00
90.00 450.00 4.00
90.00 440.00 7.00
90.00 430.00 7.00
90.00 420.00 9.00
90.00 410.00 13.00
90.00 400.00 15.00
90.00 390.00 15.00
90.00 380.00 18.00
90.00 370.00 18.00
90.00 360.00 22.00
90.00 350.00 23.00
90.00 340.00 26.00
90.00 330.00 31.00
90.00 320.00 32.00
90.00 310.00 34.00
90.00 300.00 33.00
90.00 290.00 33.00
90.00 280.00 32.00
90.00 270.00 32.00
90.00 260.00 33.00
90.00 250.00 32.00
90.00 240.00 32.00
90.00 230.00 31.00
90.00 220.00 32.00
90.00 210.00 32.00
90.00 200.00 32.00
90.00 190.00 32.00
90.00 180.00 31.00
90.00 170.00 32.00
90.00 160.00 32.00
90.00 150.00 31.00
90.00 140.00 32.00
90.00 130.00 32.00
90.00 120.00 31.00
90.00 110.00 30.00
90.00 100.00 27.00
90.00 90.00 26.00
90.00 80.00 23.00
90.00 70.00 21.00
90.00 60.00 18.00
90.00 50.00 17.00
90.00 40.00 14.00
90.00 30.00 6.00
90.00 20.00 3.00
100.00 30.00 2.00
100.00 40.00 15.00
100.00 50.00 15.00
100.00 60.00 18.00
100.00 70.00 21.00
100.00 80.00 22.00
100.00 90.00 25.00
100.00 100.00 27.00
100.00 110.00 27.00
100.00 120.00 27.00
100.00 130.00 28.00
100.00 140.00 27.00
100.00 150.00 31.00
100.00 160.00 31.00
100.00 170.00 27.00
100.00 180.00 31.00
100.00 190.00 30.00
100.00 200.00 30.00
100.00 210.00 31.00
100.00 220.00 31.00
100.00 230.00 28.00
100.00 240.00 32.00
100.00 250.00 32.00
100.00 260.00 31.00
100.00 270.00 31.00
100.00 280.00 32.00
100.00 290.00 32.00
100.00 300.00 32.00
100.00 310.00 31.00
100.00 320.00 31.00
100.00 330.00 32.00
100.00 340.00 28.00
100.00 350.00 27.00
100.00 360.00 23.00
100.00 370.00 17.00
100.00 380.00 15.00
100.00 390.00 15.00
100.00 400.00 11.00
100.00 410.00 9.00
100.00 420.00 8.00
100.00 430.00 7.00
100.00 440.00 5.00
100.00 450.00 3.00
100.00 460.00 3.00
110.00 480.00 4.00
110.00 470.00 6.00
110.00 460.00 6.00
110.00 450.00 9.00
110.00 440.00 10.00
110.00 430.00 11.00
110.00 420.00 14.00
110.00 410.00 14.00
110.00 400.00 16.00
110.00 390.00 18.00
110.00 380.00 20.00
110.00 370.00 22.00
110.00 360.00 25.00
110.00 350.00 30.00
110.00 340.00 32.00
110.00 330.00 32.00
110.00 320.00 33.00
110.00 310.00 33.00
110.00 300.00 33.00
110.00 290.00 33.00
110.00 280.00 33.00
110.00 270.00 32.00
110.00 260.00 33.00
110.00 250.00 32.00
110.00 240.00 32.00
110.00 230.00 33.00
110.00 220.00 32.00
110.00 210.00 32.00
110.00 200.00 32.00
110.00 190.00 32.00
110.00 180.00 32.00
110.00 170.00 32.00
110.00 160.00 32.00
110.00 150.00 31.00
110.00 140.00 32.00
110.00 130.00 31.00
110.00 120.00 27.00
110.00 110.00 26.00
110.00 100.00 24.00
110.00 90.00 23.00
110.00 80.00 20.00
110.00 70.00 18.00
110.00 60.00 16.00
110.00 50.00 14.00
110.00 40.00 6.00
110.00 30.00 3.00
110.00 20.00 2.00
120.00 50.00 15.00
120.00 60.00 17.00
120.00 70.00 19.00
120.00 80.00 22.00
120.00 90.00 25.00
120.00 100.00 25.00
120.00 110.00 27.00
120.00 120.00 28.00
120.00 130.00 31.00
120.00 140.00 28.00
120.00 150.00 30.00
120.00 160.00 30.00
120.00 170.00 30.00
120.00 180.00 30.00
120.00 190.00 31.00
120.00 200.00 28.00
120.00 210.00 31.00
120.00 220.00 30.00
120.00 230.00 31.00
120.00 240.00 31.00
120.00 250.00 31.00
120.00 260.00 30.00
120.00 270.00 31.00
120.00 280.00 31.00
120.00 290.00 31.00
120.00 300.00 32.00
120.00 310.00 32.00
120.00 320.00 31.00
120.00 330.00 32.00
120.00 340.00 28.00
120.00 350.00 26.00
120.00 360.00 22.00
120.00 370.00 19.00
120.00 380.00 19.00
120.00 390.00 16.00
120.00 400.00 14.00
120.00 410.00 10.00
120.00 420.00 8.00
120.00 430.00 7.00
120.00 440.00 4.00
120.00 450.00 3.00
120.00 460.00 3.00
120.00 480.00 3.00
130.00 500.00 2.00
130.00 490.00 2.00
130.00 480.00 3.00
130.00 470.00 6.00
130.00 460.00 6.00
130.00 450.00 9.00
130.00 440.00 11.00
130.00 430.00 13.00
130.00 420.00 13.00
130.00 410.00 16.00
130.00 400.00 17.00
130.00 390.00 19.00
130.00 380.00 20.00
130.00 370.00 22.00
130.00 360.00 27.00
130.00 350.00 30.00
130.00 340.00 32.00
130.00 330.00 31.00
130.00 320.00 33.00
130.00 310.00 33.00
130.00 300.00 33.00
130.00 290.00 32.00
130.00 280.00 32.00
130.00 270.00 33.00
130.00 260.00 33.00
130.00 250.00 32.00
130.00 240.00 33.00
130.00 230.00 32.00
130.00 220.00 32.00
130.00 210.00 32.00
130.00 200.00 33.00
130.00 190.00 32.00
130.00 180.00 32.00
130.00 170.00 32.00
130.00 160.00 32.00
130.00 150.00 32.00
130.00 140.00 32.00
130.00 130.00 31.00
130.00 120.00 28.00
130.00 110.00 27.00
130.00 100.00 25.00
130.00 90.00 22.00
130.00 80.00 19.00
130.00 70.00 17.00
130.00 60.00 17.00
130.00 50.00 15.00
130.00 40.00 8.00
130.00 30.00 3.00
140.00 50.00 14.00
140.00 60.00 18.00
140.00 70.00 20.00
140.00 80.00 22.00
140.00 90.00 25.00
140.00 100.00 26.00
140.00 110.00 28.00
140.00 120.00 30.00
140.00 130.00 28.00
140.00 140.00 30.00
140.00 150.00 30.00
140.00 160.00 31.00
140.00 170.00 31.00
140.00 180.00 31.00
140.00 190.00 31.00
140.00 200.00 31.00
140.00 210.00 30.00
140.00 220.00 31.00
140.00 230.00 28.00
140.00 240.00 31.00
140.00 250.00 31.00
140.00 260.00 31.00
140.00 270.00 31.00
140.00 280.00 32.00
140.00 290.00 32.00
140.00 300.00 31.00
140.00 310.00 31.00
140.00 320.00 32.00
140.00 330.00 31.00
140.00 340.00 30.00
140.00 350.00 27.00
140.00 360.00 22.00
140.00 370.00 21.00
140.00 380.00 18.00
140.00 390.00 15.00
140.00 400.00 14.00
140.00 410.00 10.00
140.00 420.00 10.00
140.00 430.00 6.00
140.00 440.00 5.00
140.00 450.00 4.00
140.00 460.00 3.00
140.00 480.00 2.00
150.00 490.00 2.00
150.00 480.00 5.00
150.00 470.00 6.00
150.00 460.00 7.00
150.00 450.00 9.00
150.00 440.00 10.00
150.00 430.00 13.00
150.00 420.00 13.00
150.00 410.00 16.00
150.00 400.00 17.00
150.00 390.00 20.00
150.00 380.00 20.00
150.00 370.00 23.00
150.00 360.00 26.00
150.00 350.00 31.00
150.00 340.00 32.00
150.00 330.00 32.00
150.00 320.00 33.00
150.00 310.00 33.00
150.00 300.00 33.00
150.00 290.00 33.00
150.00 280.00 33.00
150.00 270.00 32.00
150.00 260.00 32.00
150.00 250.00 31.00
150.00 240.00 31.00
150.00 230.00 33.00
150.00 220.00 33.00
150.00 210.00 33.00
150.00 200.00 31.00
150.00 190.00 33.00
150.00 180.00 33.00
150.00 170.00 32.00
150.00 160.00 32.00
150.00 150.00 32.00
150.00 140.00 31.00
150.00 130.00 32.00
150.00 120.00 31.00
150.00 110.00 26.00
150.00 100.00 24.00
150.00 90.00 22.00
150.00 80.00 19.00
150.00 70.00 18.00
150.00 60.00 16.00
150.00 50.00 15.00
150.00 40.00 11.00
150.00 30.00 3.00
160.00 50.00 15.00
160.00 60.00 16.00
160.00 70.00 20.00
160.00 80.00 22.00
160.00 90.00 24.00
160.00 100.00 26.00
160.00 110.00 30.00
160.00 120.00 27.00
160.00 130.00 28.00
160.00 140.00 31.00
160.00 150.00 30.00
160.00 160.00 30.00
160.00 170.00 31.00
160.00 180.00 32.00
160.00 190.00 30.00
160.00 200.00 32.00
160.00 210.00 31.00
160.00 220.00 32.00
160.00 230.00 31.00
160.00 240.00 31.00
160.00 250.00 31.00
160.00 260.00 31.00
160.00 270.00 33.00
160.00 280.00 32.00
160.00 290.00 32.00
160.00 300.00 32.00
160.00 310.00 32.00
160.00 320.00 31.00
160.00 330.00 32.00
160.00 340.00 30.00
160.00 350.00 26.00
160.00 360.00 22.00
160.00 370.00 19.00
160.00 380.00 19.00
160.00 390.00 17.00
160.00 400.00 13.00
160.00 410.00 11.00
160.00 420.00 10.00
160.00 430.00 8.00
160.00 440.00 6.00
160.00 450.00 3.00
160.00 460.00 3.00
170.00 480.00 7.00
170.00 470.00 8.00
170.00 460.00 7.00
170.00 450.00 10.00
170.00 440.00 10.00
170.00 430.00 11.00
170.00 420.00 15.00
170.00 410.00 17.00
170.00 400.00 18.00
170.00 390.00 19.00
170.00 380.00 22.00
170.00 370.00 22.00
170.00 360.00 27.00
170.00 350.00 27.00
170.00 340.00 32.00
170.00 330.00 32.00
170.00 320.00 33.00
170.00 310.00 34.00
170.00 300.00 34.00
170.00 290.00 34.00
170.00 280.00 33.00
170.00 270.00 33.00
170.00 260.00 33.00
170.00 250.00 32.00
170.00 240.00 34.00
170.00 230.00 33.00
170.00 220.00 32.00
170.00 210.00 32.00
170.00 200.00 33.00
170.00 190.00 34.00
170.00 180.00 33.00
170.00 170.00 32.00
170.00 160.00 33.00
170.00 150.00 34.00
170.00 140.00 32.00
170.00 130.00 32.00
170.00 120.00 28.00
170.00 110.00 26.00
170.00 100.00 25.00
170.00 90.00 22.00
170.00 80.00 20.00
170.00 70.00 18.00
170.00 60.00 15.00
170.00 50.00 11.00
170.00 40.00 5.00
170.00 30.00 3.00
170.00 20.00 2.00
180.00 50.00 13.00
180.00 60.00 13.00
180.00 70.00 14.00
180.00 80.00 17.00
180.00 90.00 20.00
180.00 100.00 23.00
180.00 110.00 26.00
180.00 120.00 26.00
180.00 130.00 28.00
180.00 140.00 31.00
180.00 150.00 32.00
180.00 160.00 32.00
180.00 170.00 32.00
180.00 180.00 33.00
180.00 190.00 34.00
180.00 200.00 32.00
180.00 210.00 33.00
180.00 220.00 33.00
180.00 230.00 33.00
180.00 240.00 33.00
180.00 250.00 33.00
180.00 260.00 34.00
180.00 270.00 34.00
180.00 280.00 32.00
180.00 290.00 34.00
180.00 300.00 33.00
180.00 310.00 32.00
180.00 320.00 33.00
180.00 330.00 32.00
180.00 340.00 32.00
180.00 350.00 30.00
180.00 360.00 26.00
180.00 370.00 23.00
180.00 380.00 21.00
180.00 390.00 19.00
180.00 400.00 17.00
180.00 410.00 15.00
180.00 420.00 13.00
180.00 430.00 10.00
180.00 440.00 10.00
180.00 450.00 7.00
180.00 460.00 7.00
180.00 470.00 6.00
180.00 480.00 6.00
180.00 490.00 2.00
190.00 480.00 2.00
190.00 470.00 6.00
190.00 460.00 6.00
190.00 450.00 8.00
190.00 440.00 11.00
190.00 430.00 13.00
190.00 420.00 13.00
190.00 410.00 15.00
190.00 400.00 17.00
190.00 390.00 19.00
190.00 380.00 19.00
190.00 370.00 22.00
190.00 360.00 22.00
190.00 350.00 28.00
190.00 340.00 30.00
190.00 330.00 32.00
190.00 320.00 32.00
190.00 310.00 32.00
190.00 300.00 33.00
190.00 290.00 34.00
190.00 280.00 33.00
190.00 270.00 32.00
190.00 260.00 32.00
190.00 250.00 32.00
190.00 240.00 32.00
190.00 230.00 32.00
190.00 220.00 32.00
190.00 210.00 32.00
190.00 200.00 33.00
190.00 190.00 33.00
190.00 180.00 33.00
190.00 170.00 32.00
190.00 160.00 32.00
190.00 150.00 33.00
190.00 140.00 32.00
190.00 130.00 30.00
190.00 120.00 27.00
190.00 110.00 26.00
190.00 100.00 22.00
190.00 90.00 19.00
190.00 80.00 19.00
190.00 70.00 17.00
190.00 60.00 14.00
190.00 50.00 8.00
190.00 40.00 7.00
190.00 30.00 4.00
190.00 20.00 2.00
200.00 50.00 4.00
200.00 60.00 5.00
200.00 70.00 8.00
200.00 80.00 10.00
200.00 90.00 13.00
200.00 100.00 20.00
200.00 110.00 20.00
200.00 120.00 22.00
200.00 130.00 22.00
200.00 140.00 23.00
200.00 150.00 23.00
200.00 160.00 24.00
200.00 170.00 23.00
200.00 180.00 24.00
200.00 190.00 20.00
200.00 200.00 22.00
200.00 210.00 22.00
200.00 220.00 22.00
200.00 230.00 22.00
200.00 240.00 22.00
200.00 250.00 21.00
200.00 260.00 23.00
200.00 270.00 23.00
200.00 280.00 22.00
200.00 290.00 23.00
200.00 300.00 21.00
200.00 310.00 23.00
200.00 320.00 19.00
200.00 330.00 19.00
200.00 340.00 18.00
200.00 350.00 16.00
200.00 360.00 14.00
200.00 370.00 13.00
200.00 380.00 14.00
200.00 390.00 10.00
200.00 400.00 6.00
200.00 410.00 4.00
200.00 420.00 2.00
200.00 430.00 4.00
200.00 440.00 2.00
200.00 480.00 2.00
210.00 440.00 2.00
210.00 430.00 2.00
210.00 420.00 3.00
210.00 410.00 4.00
210.00 400.00 4.00
210.00 390.00 4.00
210.00 380.00 8.00
210.00 370.00 9.00
210.00 360.00 8.00
210.00 350.00 11.00
210.00 340.00 11.00
210.00 330.00 10.00
210.00 320.00 11.00
210.00 310.00 13.00
210.00 300.00 13.00
210.00 290.00 11.00
210.00 280.00 13.00
210.00 270.00 14.00
210.00 260.00 15.00
210.00 250.00 15.00
210.00 240.00 17.00
210.00 230.00 16.00
210.00 220.00 15.00
210.00 210.00 17.00
210.00 200.00 17.00
210.00 190.00 18.00
210.00 180.00 18.00
210.00 170.00 16.00
210.00 160.00 10.00
210.00 150.00 11.00
210.00 140.00 11.00
210.00 130.00 15.00
210.00 120.00 7.00
210.00 110.00 8.00
210.00 100.00 6.00
210.00 90.00 6.00
210.00 80.00 6.00
210.00 70.00 4.00
210.00 60.00 5.00
210.00 50.00 4.00
210.00 40.00 3.00
220.00 80.00 2.00
220.00 120.00 3.00
220.00 130.00 2.00
220.00 150.00 3.00
220.00 160.00 8.00
220.00 170.00 5.00
220.00 180.00 11.00
220.00 190.00 10.00
220.00 200.00 11.00
220.00 210.00 13.00
220.00 220.00 13.00
220.00 230.00 8.00
220.00 240.00 8.00
220.00 250.00 7.00
220.00 260.00 8.00
220.00 270.00 5.00
220.00 280.00 6.00
220.00 290.00 3.00
220.00 300.00 2.00
230.00 290.00 4.00
230.00 280.00 4.00
230.00 270.00 6.00
230.00 260.00 7.00
230.00 250.00 10.00
230.00 240.00 10.00
230.00 230.00 9.00
230.00 220.00 11.00
230.00 210.00 11.00
230.00 200.00 11.00
230.00 190.00 9.00
230.00 180.00 5.00
230.00 170.00 3.00
230.00 160.00 4.00
230.00 150.00 4.00
230.00 140.00 3.00
230.00 130.00 2.00
230.00 120.00 4.00
230.00 110.00 2.00
230.00 100.00 2.00
230.00 80.00 2.00
230.00 70.00 3.00
230.00 60.00 3.00
230.00 50.00 3.00
240.00 170.00 2.00
240.00 180.00 2.00
240.00 190.00 3.00
240.00 200.00 2.00
240.00 210.00 3.00
240.00 220.00 2.00
240.00 230.00 3.00
240.00 240.00 2.00
250.00 60.00 4.00
260.00 70.00 2.00
270.00 80.00 2.00
270.00 70.00 2.00
270.00 60.00 2.00
270.00 50.00 3.00
280.00 80.00 2.00
