0.00 240.00 2.00
0.00 250.00 2.00
0.00 270.00 2.00
0.00 290.00 2.00
0.00 300.00 2.00
0.00 310.00 2.00
0.00 330.00 3.00
0.00 340.00 2.00
0.00 360.00 3.00
0.00 370.00 2.00
0.00 380.00 2.00
0.00 390.00 2.00
0.00 400.00 2.00
0.00 410.00 3.00
0.00 420.00 3.00
0.00 430.00 3.00
0.00 440.00 3.00
0.00 450.00 4.00
0.00 460.00 2.00
0.00 470.00 2.00
0.00 480.00 2.00
0.00 490.00 2.00
0.00 500.00 3.00
10.00 500.00 2.00
10.00 490.00 2.00
10.00 480.00 2.00
10.00 470.00 2.00
10.00 460.00 3.00
10.00 450.00 3.00
10.00 440.00 2.00
10.00 430.00 2.00
10.00 420.00 2.00
10.00 410.00 2.00
10.00 400.00 2.00
10.00 390.00 2.00
10.00 380.00 2.00
10.00 360.00 2.00
10.00 350.00 2.00
10.00 340.00 2.00
10.00 330.00 2.00
10.00 320.00 2.00
10.00 300.00 2.00
10.00 290.00 2.00
10.00 280.00 3.00
10.00 190.00 2.00
10.00 180.00 2.00
10.00 150.00 2.00
10.00 140.00 2.00
10.00 130.00 2.00
10.00 120.00 2.00
10.00 100.00 2.00
10.00 90.00 2.00
10.00 80.00 2.00
20.00 440.00 2.00
20.00 490.00 2.00
20.00 500.00 2.00
50.00 320.00 3.00
50.00 310.00 4.00
50.00 300.00 5.00
50.00 290.00 6.00
50.00 280.00 6.00
50.00 270.00 6.00
50.00 260.00 5.00
50.00 250.00 5.00
50.00 240.00 4.00
50.00 230.00 3.00
60.00 220.00 6.00
60.00 230.00 9.00
60.00 240.00 10.00
60.00 250.00 11.00
60.00 260.00 11.00
60.00 270.00 11.00
60.00 280.00 11.00
60.00 290.00 11.00
60.00 300.00 11.00
60.00 310.00 11.00
60.00 320.00 10.00
60.00 330.00 6.00
60.00 340.00 4.00
70.00 330.00 5.00
70.00 320.00 11.00
70.00 310.00 14.00
70.00 300.00 14.00
70.00 290.00 15.00
70.00 280.00 14.00
70.00 270.00 15.00
70.00 260.00 15.00
70.00 250.00 15.00
70.00 240.00 14.00
70.00 230.00 12.00
70.00 220.00 10.00
70.00 210.00 4.00
80.00 200.00 3.00
80.00 210.00 7.00
80.00 220.00 13.00
80.00 230.00 15.00
80.00 240.00 16.00
80.00 250.00 18.00
80.00 260.00 17.00
80.00 270.00 17.00
80.00 280.00 18.00
80.00 290.00 16.00
80.00 300.00 15.00
80.00 310.00 14.00
80.00 320.00 12.00
80.00 330.00 6.00
90.00 330.00 4.00
90.00 320.00 6.00
90.00 310.00 15.00
90.00 300.00 17.00
90.00 290.00 21.00
90.00 280.00 21.00
90.00 270.00 22.00
90.00 260.00 22.00
90.00 250.00 22.00
90.00 240.00 22.00
90.00 230.00 19.00
90.00 220.00 16.00
90.00 210.00 11.00
90.00 200.00 7.00
100.00 200.00 10.00
100.00 210.00 16.00
100.00 220.00 21.00
100.00 230.00 22.00
100.00 240.00 23.00
100.00 250.00 23.00
100.00 260.00 23.00
100.00 270.00 22.00
100.00 280.00 23.00
100.00 290.00 19.00
100.00 300.00 19.00
100.00 310.00 14.00
100.00 320.00 7.00
100.00 330.00 4.00
110.00 330.00 5.00
110.00 320.00 5.00
110.00 310.00 10.00
110.00 300.00 17.00
110.00 290.00 22.00
110.00 280.00 23.00
110.00 270.00 24.00
110.00 260.00 23.00
110.00 250.00 23.00
110.00 240.00 24.00
110.00 230.00 24.00
110.00 220.00 21.00
110.00 210.00 16.00
110.00 200.00 15.00
110.00 190.00 4.00
120.00 190.00 7.00
120.00 200.00 11.00
120.00 210.00 17.00
120.00 220.00 17.00
120.00 230.00 19.00
120.00 240.00 19.00
120.00 250.00 19.00
120.00 260.00 21.00
120.00 270.00 19.00
120.00 280.00 21.00
120.00 290.00 18.00
120.00 300.00 18.00
120.00 310.00 13.00
120.00 320.00 7.00
120.00 330.00 5.00
130.00 330.00 4.00
130.00 320.00 4.00
130.00 310.00 10.00
130.00 300.00 14.00
130.00 290.00 17.00
130.00 280.00 18.00
130.00 270.00 18.00
130.00 260.00 18.00
130.00 250.00 18.00
130.00 240.00 18.00
130.00 230.00 18.00
130.00 220.00 18.00
130.00 210.00 16.00
130.00 200.00 12.00
130.00 190.00 5.00
130.00 180.00 2.00
140.00 200.00 4.00
140.00 210.00 10.00
140.00 220.00 11.00
140.00 230.00 13.00
140.00 240.00 13.00
140.00 250.00 13.00
140.00 260.00 14.00
140.00 270.00 14.00
140.00 280.00 13.00
140.00 290.00 13.00
140.00 300.00 11.00
140.00 310.00 6.00
140.00 320.00 4.00
150.00 320.00 2.00
150.00 310.00 4.00
150.00 300.00 8.00
150.00 290.00 9.00
150.00 280.00 11.00
150.00 270.00 10.00
150.00 260.00 10.00
150.00 250.00 10.00
150.00 240.00 9.00
150.00 230.00 9.00
150.00 220.00 9.00
150.00 210.00 8.00
150.00 200.00 4.00
160.00 220.00 2.00
160.00 230.00 4.00
160.00 240.00 4.00
160.00 250.00 7.00
160.00 260.00 6.00
160.00 270.00 6.00
160.00 280.00 6.00
160.00 290.00 4.00
160.00 300.00 3.00
160.00 310.00 3.00
170.00 400.00 2.00
170.00 390.00 2.00
170.00 320.00 2.00
170.00 310.00 4.00
170.00 300.00 4.00
170.00 290.00 6.00
170.00 280.00 4.00
170.00 270.00 3.00
170.00 260.00 4.00
170.00 250.00 6.00
170.00 240.00 3.00
170.00 230.00 3.00
170.00 220.00 2.00
170.00 210.00 2.00
180.00 170.00 2.00
180.00 180.00 4.00
180.00 190.00 4.00
180.00 200.00 3.00
180.00 210.00 6.00
180.00 220.00 7.00
180.00 230.00 8.00
180.00 240.00 8.00
180.00 250.00 6.00
180.00 260.00 4.00
180.00 270.00 4.00
180.00 280.00 4.00
180.00 290.00 4.00
180.00 300.00 6.00
180.00 310.00 4.00
180.00 320.00 7.00
180.00 330.00 4.00
180.00 400.00 2.00
190.00 430.00 3.00
190.00 420.00 3.00
190.00 410.00 4.00
190.00 400.00 4.00
190.00 390.00 4.00
190.00 380.00 3.00
190.00 370.00 3.00
190.00 360.00 8.00
190.00 350.00 2.00
190.00 340.00 7.00
190.00 330.00 7.00
190.00 320.00 6.00
190.00 310.00 4.00
190.00 300.00 3.00
190.00 290.00 4.00
190.00 280.00 6.00
190.00 270.00 7.00
190.00 260.00 8.00
190.00 250.00 8.00
190.00 240.00 7.00
190.00 230.00 8.00
190.00 220.00 7.00
190.00 210.00 6.00
190.00 200.00 7.00
190.00 190.00 7.00
190.00 180.00 7.00
190.00 170.00 6.00
190.00 160.00 3.00
190.00 150.00 4.00
190.00 140.00 2.00
200.00 110.00 3.00
200.00 120.00 3.00
200.00 130.00 3.00
200.00 140.00 6.00
200.00 150.00 6.00
200.00 160.00 6.00
200.00 170.00 7.00
200.00 180.00 6.00
200.00 190.00 7.00
200.00 200.00 6.00
200.00 210.00 6.00
200.00 220.00 7.00
200.00 230.00 7.00
200.00 240.00 7.00
200.00 250.00 6.00
200.00 260.00 6.00
200.00 270.00 6.00
200.00 280.00 6.00
200.00 290.00 7.00
200.00 300.00 6.00
200.00 310.00 6.00
200.00 320.00 3.00
200.00 330.00 4.00
200.00 340.00 4.00
200.00 350.00 4.00
200.00 360.00 3.00
200.00 380.00 4.00
200.00 390.00 2.00
200.00 400.00 2.00
200.00 410.00 2.00
200.00 420.00 2.00
200.00 450.00 2.00
210.00 440.00 2.00
210.00 420.00 2.00
210.00 410.00 2.00
210.00 380.00 2.00
210.00 370.00 2.00
210.00 360.00 3.00
210.00 350.00 4.00
210.00 340.00 6.00
210.00 330.00 4.00
210.00 320.00 4.00
210.00 310.00 4.00
210.00 300.00 6.00
210.00 290.00 6.00
210.00 280.00 6.00
210.00 270.00 7.00
210.00 260.00 6.00
210.00 250.00 6.00
210.00 240.00 6.00
210.00 230.00 6.00
210.00 220.00 6.00
210.00 210.00 6.00
210.00 200.00 6.00
210.00 190.00 7.00
210.00 180.00 6.00
210.00 170.00 3.00
210.00 160.00 3.00
210.00 150.00 4.00
210.00 140.00 6.00
210.00 130.00 6.00
210.00 120.00 3.00
210.00 110.00 4.00
210.00 100.00 3.00
220.00 100.00 4.00
220.00 110.00 4.00
220.00 120.00 3.00
220.00 130.00 3.00
220.00 140.00 4.00
220.00 150.00 2.00
220.00 160.00 4.00
220.00 170.00 3.00
220.00 180.00 4.00
220.00 190.00 6.00
220.00 200.00 7.00
220.00 210.00 4.00
220.00 220.00 7.00
220.00 230.00 6.00
220.00 240.00 6.00
220.00 250.00 7.00
220.00 260.00 6.00
220.00 270.00 7.00
220.00 280.00 6.00
220.00 290.00 4.00
220.00 300.00 4.00
220.00 310.00 6.00
220.00 320.00 4.00
220.00 330.00 4.00
220.00 340.00 3.00
230.00 320.00 3.00
230.00 310.00 6.00
230.00 300.00 7.00
230.00 290.00 7.00
230.00 280.00 6.00
230.00 270.00 6.00
230.00 260.00 7.00
230.00 250.00 7.00
230.00 240.00 7.00
230.00 230.00 6.00
230.00 220.00 6.00
230.00 210.00 6.00
230.00 200.00 6.00
230.00 190.00 4.00
230.00 180.00 4.00
230.00 170.00 4.00
230.00 160.00 3.00
230.00 150.00 4.00
230.00 140.00 4.00
230.00 130.00 4.00
230.00 120.00 4.00
230.00 110.00 3.00
240.00 140.00 2.00
240.00 150.00 2.00
240.00 160.00 3.00
240.00 170.00 4.00
240.00 180.00 4.00
240.00 190.00 6.00
240.00 200.00 6.00
240.00 210.00 4.00
240.00 220.00 6.00
240.00 230.00 6.00
240.00 240.00 6.00
240.00 250.00 6.00
240.00 260.00 4.00
240.00 270.00 6.00
240.00 280.00 6.00
240.00 290.00 3.00
240.00 300.00 4.00
250.00 300.00 2.00
250.00 290.00 2.00
250.00 280.00 3.00
250.00 270.00 3.00
250.00 260.00 3.00
250.00 250.00 6.00
250.00 240.00 4.00
250.00 230.00 4.00
250.00 220.00 4.00
250.00 210.00 4.00
250.00 200.00 4.00
250.00 190.00 4.00
250.00 180.00 3.00
250.00 170.00 6.00
250.00 160.00 2.00
260.00 190.00 2.00
260.00 200.00 4.00
260.00 210.00 4.00
260.00 220.00 4.00
260.00 230.00 4.00
260.00 240.00 4.00
260.00 250.00 4.00
260.00 260.00 4.00
260.00 270.00 4.00
260.00 280.00 3.00
270.00 310.00 2.00
270.00 290.00 3.00
270.00 280.00 3.00
270.00 270.00 6.00
270.00 260.00 7.00
270.00 250.00 8.00
270.00 240.00 8.00
270.00 230.00 7.00
270.00 220.00 8.00
270.00 210.00 8.00
270.00 200.00 8.00
270.00 190.00 6.00
270.00 180.00 3.00
280.00 160.00 2.00
280.00 170.00 6.00
280.00 180.00 8.00
280.00 190.00 9.00
280.00 200.00 10.00
280.00 210.00 10.00
280.00 220.00 11.00
280.00 230.00 10.00
280.00 240.00 9.00
280.00 250.00 11.00
280.00 260.00 9.00
280.00 270.00 8.00
280.00 280.00 4.00
280.00 290.00 3.00
290.00 300.00 2.00
